   3.0632303676969823e+01   1.4365363561077449e+00   5.0990562411881930e+00
   3.0935015825705488e+01   1.4316094047617764e+00   5.1090993496361543e+00
   3.0837166875266377e+01   1.4365369954386766e+00   5.1040765490351312e+00
   3.1257841472989064e+01   1.4615699029391900e+00   5.0940333713008510e+00
   3.1117490443928489e+01   1.4565494347020302e+00   5.0940322053006728e+00
   3.1338784382773831e+01   1.4565493163945020e+00   5.0990531549241158e+00
   3.1172498309271571e+01   1.4515489909904338e+00   5.0990539737247724e+00
   3.1492182854220648e+01   1.4615701260058620e+00   5.0990536790601126e+00
   3.1300151809422744e+01   1.4816112915100552e+00   5.0789643082923455e+00
   3.1526976624917491e+01   1.4816104882820134e+00   5.0839886672708943e+00
   3.1370451863365499e+01   1.4764859434955948e+00   5.0839869615456923e+00
   3.1627146061332358e+01   1.5016179003566954e+00   5.0689189924574718e+00
   3.1758789834978064e+01   1.4916925917207988e+00   5.0789657509987638e+00
   3.1905616854326730e+01   1.4965746189549047e+00   5.0789642738832264e+00
   3.1522041427535779e+01   1.4917265484343829e+00   5.0739415324613351e+00
   3.1473834219268074e+01   1.4867678421332347e+00   5.0789654886056876e+00
   3.2191181346555723e+01   1.4867672095578741e+00   5.0940305365989058e+00
   3.1762710008618928e+01   1.4816104715782739e+00   5.0890084164210965e+00
   3.1605696870411574e+01   1.4765019011662497e+00   5.0890107343923514e+00
   3.1430698556288721e+01   1.4714653758334297e+00   5.0890107026650435e+00
   3.1685648042769728e+01   1.4714655218776871e+00   5.0940301645738657e+00
   3.2089619587983663e+01   1.5015998688143486e+00   5.0789662657698598e+00
   3.1942926383864879e+01   1.4867678197376504e+00   5.0890106117890515e+00
   3.2203494435315527e+01   1.4917098082729221e+00   5.0890103788664991e+00
   3.1724606987144522e+01   1.4867676772580931e+00   5.0839861350951789e+00
   3.0851987174813715e+01   1.4665958134533519e+00   5.0789659522158344e+00
   3.0982658289709796e+01   1.4714997033420805e+00   5.0789652125541718e+00
   3.1234331403498956e+01   1.4714990643184855e+00   5.0839865490000689e+00
   3.2718202945993504e+01   1.5418914754427477e+00   5.0588745361673011e+00
   3.1917725761982148e+01   1.5369877253889883e+00   5.0387855120341332e+00
   3.1969654511826821e+01   1.5369877982534557e+00   5.0438059832088271e+00
   3.1882950697002180e+01   1.5319224493093910e+00   5.0488305887107998e+00
   3.2734071419439076e+01   1.5672867430985893e+00   5.0237181317911990e+00
   3.2636511481786911e+01   1.5621718546921646e+00   5.0287380774070485e+00
   3.2738008692761518e+01   1.5621717508760620e+00   5.0387862255808571e+00
   3.2830859236031472e+01   1.5672689025938407e+00   5.0337634830960800e+00
   3.2868259261267461e+01   1.5672689325054947e+00   5.0387837980861656e+00
   3.2301890048423864e+01   1.5520203260590650e+00   5.0287402390965426e+00
   3.2414391105872390e+01   1.5520367314422905e+00   5.0387843150184617e+00
   3.2033423156474925e+01   1.5419082778973492e+00   5.0337612761585273e+00
   3.2084469413903939e+01   1.5419085771132135e+00   5.0387856326755625e+00
   3.2476461102836957e+01   1.5571388325866420e+00   5.0287386443200059e+00
   3.2527921040149401e+01   1.5571555928389622e+00   5.0337630096342814e+00
   3.2429641385070880e+01   1.5520362662001870e+00   5.0438084934900420e+00
   3.2148744403452106e+01   1.5418916504731219e+00   5.0488303067857130e+00
   3.2736079982492910e+01   1.5621880154120757e+00   5.0438062090728932e+00
   3.2140559319022152e+01   1.5166684379110604e+00   5.0689191637554831e+00
   3.2386289839872873e+01   1.5166683146894422e+00   5.0739431217341364e+00
   3.2213316214669021e+01   1.5118254260452451e+00   5.0739430444176508e+00
   3.2566049891746239e+01   1.5369537957267581e+00   5.0588746769915112e+00
   3.2634696084219108e+01   1.5266991925428457e+00   5.0689188056913670e+00
   3.2775259340113742e+01   1.5369714226607243e+00   5.0638982363579732e+00
   3.2836755195749944e+01   1.5319038901036792e+00   5.0689198599433833e+00
   3.2210468474615674e+01   1.5215992263338369e+00   5.0638964858507656e+00
   3.2379423501165263e+01   1.5266819666260723e+00   5.0638982457095061e+00
   3.2427751750632687e+01   1.5215989142694988e+00   5.0689205701913078e+00
   3.2696055721124416e+01   1.5215991421672039e+00   5.0739416187110233e+00
   3.2918523563633094e+01   1.5215826533052019e+00   5.0789659530251869e+00
   3.2277106446974365e+01   1.5067821871170330e+00   5.0789642261850556e+00
   3.2460381783637942e+01   1.5118074993612620e+00   5.0789637112045387e+00
   3.2709328127999463e+01   1.5118079366097295e+00   5.0839877354692522e+00
   3.2532286217519541e+01   1.5067819373498053e+00   5.0839882269311216e+00
   3.3025913254951739e+01   1.5319034476108375e+00   5.0739442574116733e+00
   3.3051327930443897e+01   1.5266985655031295e+00   5.0789632306988199e+00
   3.3035410698580364e+01   1.5469145203696271e+00   5.0588756962987489e+00
   3.3199904240839309e+01   1.5520367289556138e+00   5.0588732864304431e+00
   3.3368123283707845e+01   1.5672690695721412e+00   5.0488313993204947e+00
   3.3175318699896437e+01   1.5571552331366412e+00   5.0538514119724383e+00
   3.2929902621125819e+01   1.5418914661617540e+00   5.0638984618814735e+00
   3.1975726465679571e+01   1.5118252649357322e+00   5.0689193220052582e+00
   3.1335034215810730e+01   1.5166841750753393e+00   5.0387855287643326e+00
   3.1435947222301827e+01   1.5166505210591457e+00   5.0488301300559648e+00
   3.1192515009845504e+01   1.5118080639287796e+00   5.0387859418810308e+00
   3.1114872967433595e+01   1.5067839363672415e+00   5.0438068191452823e+00
   3.1220605614411181e+01   1.5068001201410410e+00   5.0538512377770202e+00
   3.1350295849359430e+01   1.5118252503965355e+00   5.0538542588191984e+00
   3.1638730482123837e+01   1.5267001619361193e+00   5.0387857718482199e+00
   3.1739805641093849e+01   1.5267169193514980e+00   5.0488300720241384e+00
   3.1472755343173148e+01   1.5166679519594766e+00   5.0588746691397564e+00
   3.1353587878098079e+01   1.5118247143256651e+00   5.0588747576300506e+00
   3.1221567429558963e+01   1.5068001995536218e+00   5.0588748401205850e+00
   3.1605844429307403e+01   1.5215991933382302e+00   5.0538520736901251e+00
   3.1739314484406183e+01   1.5267166855842442e+00   5.0538545616420922e+00
   3.2037427936686946e+01   1.5067995441577000e+00   5.0739437669971101e+00
   2.9149198835438771e+01   1.4365863819734335e+00   5.0036272046633812e+00
   2.9041402815593482e+01   1.4316224556897943e+00   5.0086490576241625e+00
   2.8944071671422062e+01   1.4266536582385603e+00   5.0086480955414325e+00
   2.9336963830533488e+01   1.4465694369102353e+00   4.9986021520009540e+00
   2.9138932559429726e+01   1.4365854433084668e+00   5.0086479687358931e+00
   2.9056319702268578e+01   1.4365534425367341e+00   5.0136717366935022e+00
   2.8878320347768099e+01   1.4266536961602885e+00   5.0136715370555205e+00
   2.8835862002638365e+01   1.4266706965924838e+00   5.0186956461910128e+00
   2.9008873582500527e+01   1.4316237109705185e+00   5.0237183166985258e+00
   2.8890899649430789e+01   1.4266701114984996e+00   5.0237162909203850e+00
   2.9111401336078103e+01   1.4365701362231105e+00   5.0237159442106556e+00
   2.9465953687642521e+01   1.4565665386217816e+00   5.0136736908725288e+00
   2.9291607478638898e+01   1.4465686851352149e+00   5.0086473419218498e+00
   2.9245309100508326e+01   1.4465858898758026e+00   5.0136709940805542e+00
   2.9422529138844286e+01   1.4515818941627650e+00   5.0186937146884194e+00
   2.9359871260688131e+01   1.4465529873256393e+00   5.0237159147261439e+00
   2.9539104385278325e+01   1.4565667887734646e+00   5.0186938637812384e+00
   2.9415779621460807e+01   1.4415035448110243e+00   5.0387861846328663e+00
   2.9173469602138482e+01   1.4365697225936804e+00   5.0287408740197934e+00
   2.9116234519088401e+01   1.4316069856855800e+00   5.0337624400671581e+00
   2.8953850977192104e+01   1.4266708652951787e+00   5.0287407176640855e+00
   2.9151103983771353e+01   1.4316076795829031e+00   5.0387837444210311e+00
   2.9056923808324790e+01   1.4266374404675546e+00   5.0387843261468470e+00
   2.9595819029464600e+01   1.4565833553620255e+00   5.0237177248013785e+00
   2.9483318577646173e+01   1.4515823881937480e+00   5.0237179586451788e+00
   2.9414845784021985e+01   1.4465521663278211e+00   5.0287402119771132e+00
   2.9579692969065249e+01   1.4515498717452888e+00   5.0337624535844521e+00
   2.9516553981436822e+01   1.4465689240870041e+00   5.0387842339155426e+00
   2.9694252674776543e+01   1.4565499646513806e+00   5.0337627383961232e+00
   2.9454054439725173e+01   1.4415039355320878e+00   5.0438067774416888e+00
   2.9555782156225895e+01   1.4415031866371906e+00   5.0538511150441829e+00
   2.9385329534394199e+01   1.4365696678010076e+00   5.0488300990388115e+00
   2.9220579890674003e+01   1.4266543746552949e+00   5.0488292206781376e+00
   2.9370017952169761e+01   1.4316244091218953e+00   5.0588767667288437e+00
   2.9215007742176947e+01   1.4266539067972956e+00   5.0538525129474499e+00
   2.9431077439298360e+01   1.4365538799388293e+00   5.0538537209307286e+00
   2.9798797362163356e+01   1.4565500226961958e+00   5.0438070673749422e+00
   2.9679337945876540e+01   1.4515662149735400e+00   5.0438067543523628e+00
   2.9569262925579835e+01   1.4465687865936829e+00   5.0438085300155375e+00
   2.9781307746449297e+01   1.4515661154665684e+00   5.0538514833374677e+00
   2.9623768169593010e+01   1.4465692041057485e+00   5.0488286075153921e+00
   2.9854584562222886e+01   1.4565504724594427e+00   5.0488308766938292e+00
   3.0083510841030076e+01   1.4315913533364895e+00   5.0890102430312041e+00
   2.9672896496920739e+01   1.4414871515206864e+00   5.0638987600958600e+00
   2.9725614333257607e+01   1.4414866275974427e+00   5.0689195413630070e+00
   2.9538400928707667e+01   1.4365534664893185e+00   5.0638981445886468e+00
   2.9423944182415603e+01   1.4316244082822234e+00   5.0638963412897278e+00
   2.9320404583653705e+01   1.4266535151296997e+00   5.0638976516242877e+00
   2.9540597352848941e+01   1.4315910027081611e+00   5.0739412771157326e+00
   2.9431360978270646e+01   1.4266195828257435e+00   5.0739414518846147e+00
   2.9642465300242726e+01   1.4365531634000477e+00   5.0739426692200595e+00
   2.9908944287286452e+01   1.4565670601581946e+00   5.0538508774167079e+00
   2.9832771386863627e+01   1.4515660805136497e+00   5.0588762531650522e+00
   2.9726401920702227e+01   1.4465354812178697e+00   5.0588737008843578e+00
   2.9887960621225897e+01   1.4515325213585797e+00   5.0638960535696214e+00
   2.9837752837095255e+01   1.4465521419442930e+00   5.0689211453424026e+00
   3.0064146199037168e+01   1.4565328073527506e+00   5.0689198213267090e+00
   2.9788604932046550e+01   1.4414868469819935e+00   5.0789639573222649e+00
   2.9657408866434352e+01   1.4365528684686948e+00   5.0789638238160375e+00
   2.9555016865915235e+01   1.4315920568804987e+00   5.0789655394129163e+00
   2.9493384067464586e+01   1.4266366191824911e+00   5.0839867194668606e+00
   3.0064131442360662e+01   1.4565324876752725e+00   5.0739431998330931e+00
   2.9959079167797150e+01   1.4515487945756922e+00   5.0739406294625695e+00
   2.9858814786164437e+01   1.4465523969860834e+00   5.0739418868869484e+00
   3.0196412508764777e+01   1.4365702353808620e+00   5.0890084606935115e+00
   3.0272667511608589e+01   1.4316089330388249e+00   5.0940305643807040e+00
   3.0496710992772947e+01   1.4316091650824729e+00   5.0990546310146438e+00
   3.1818450347635110e+01   1.4113962191197056e+00   5.1392328573355162e+00
   3.2053822131972254e+01   1.4113621416763125e+00   5.1442537536859927e+00
   3.1071567038412383e+01   1.4113803110448400e+00   5.1241643668500219e+00
   3.1416574617761910e+01   1.4315755402569454e+00   5.1191436543329356e+00
   3.0906185134292993e+01   1.4215910454154512e+00   5.1141224480475103e+00
   3.0952808277666488e+01   1.4164957184252851e+00   5.1191439457537218e+00
   3.1034114140676532e+01   1.4266201250397026e+00   5.1141233554398839e+00
   3.1229835422034615e+01   1.4165119757210607e+00   5.1241647213647923e+00
   3.1126835282880062e+01   1.4215908692269557e+00   5.1191428087602269e+00
   3.1047842058230362e+01   1.4063823535542164e+00   5.1291875972269931e+00
   3.1294778023136960e+01   1.4113800428846512e+00   5.1291889120366347e+00
   3.1166191513250219e+01   1.4014645921842197e+00   5.1342102129041072e+00
   3.1562449356084421e+01   1.4113967823278915e+00   5.1342089639361159e+00
   3.1297014877169243e+01   1.4063995953659445e+00   5.1342079344621867e+00
   3.1669404684768356e+01   1.4315926844551030e+00   5.1241647902540741e+00
   3.1605568010439821e+01   1.4215906018834521e+00   5.1291869706104425e+00
   3.1892996468184705e+01   1.4315919912965287e+00   5.1291891309611355e+00
   3.1759250996157906e+01   1.4266199436274354e+00   5.1291872737258988e+00
   3.1472891597046512e+01   1.4165120845214652e+00   5.1291891253146114e+00
   3.1363404115821563e+01   1.3915739105055864e+00   5.1442552942181994e+00
   3.1633094371585752e+01   1.3915731255333383e+00   5.1492761269777843e+00
   3.1847275980060807e+01   1.3765226018430243e+00   5.1643435958066082e+00
   3.1883627449581375e+01   1.3915734486857290e+00   5.1542960402739268e+00
   3.1727885924271742e+01   1.3865766732139979e+00   5.1542986922964413e+00
   3.2421006252650656e+01   1.4315930064204079e+00   5.1392336672275425e+00
   3.2536320503297929e+01   1.4113623989346338e+00   5.1542984750703864e+00
   3.2493713667843188e+01   1.4266366536075559e+00   5.1442523561756284e+00
   3.2373700947005069e+01   1.4216073892924921e+00   5.1442554847099871e+00
   3.2560701880515815e+01   1.4215729585277093e+00   5.1492760164755129e+00
   3.1521815669398883e+01   1.4063653224457597e+00   5.1392319419395402e+00
   3.1407815558125037e+01   1.4014297933580315e+00   5.1392303659358216e+00
   3.1643850229606034e+01   1.4014299611692609e+00   5.1442547950377424e+00
   3.1883599426105359e+01   1.4014295170635336e+00   5.1492748475629373e+00
   3.2011545433300995e+01   1.4266189586382456e+00   5.1342078810216707e+00
   3.1866923254159335e+01   1.4216071295505004e+00   5.1342112620488320e+00
   3.1954898230469585e+01   1.4165117761483534e+00   5.1392328087580088e+00
   3.2293688440340922e+01   1.4063647513256381e+00   5.1542976377732668e+00
   3.2443881037445720e+01   1.3458706839608077e+00   5.1944732068430302e+00
   3.2358052349670800e+01   1.3561110172698214e+00   5.1844297992749295e+00
   3.2500892869280669e+01   1.3561106144706412e+00   5.1894500513201089e+00
   3.2313445722434629e+01   1.3509634754842186e+00   5.1894525308298194e+00
   3.2450983693320438e+01   1.3613243547873815e+00   5.1844301336932705e+00
   3.2499302282539638e+01   1.4063651691347092e+00   5.1593216855168986e+00
   3.2397802392837974e+01   1.3915738252674910e+00   5.1643411082752264e+00
   3.2486696146209610e+01   1.3965116384355281e+00   5.1643430962546706e+00
   3.2285695778153716e+01   1.3865759750649242e+00   5.1643425020237830e+00
   3.2470669247611163e+01   1.3865762116493847e+00   5.1693633398059680e+00
   3.2464792171411204e+01   1.3715417729373769e+00   5.1794086999186337e+00
   3.2358598696888912e+01   1.3664876157431820e+00   5.1794094331596909e+00
   3.2237548587735233e+01   1.3613244171672960e+00   5.1794061024906703e+00
   3.0349706086314658e+01   1.3306854798848349e+00   5.1593187924208301e+00
   3.0579527360226120e+01   1.3255766730748664e+00   5.1693631899988635e+00
   2.9330497467216286e+01   1.3357380874976508e+00   5.1342097590554268e+00
   2.9561626776092432e+01   1.3459209215008094e+00   5.1342099631554667e+00
   2.9535854431047579e+01   1.3357380489812818e+00   5.1392301248227508e+00
   2.9750453796902089e+01   1.3357379256143171e+00   5.1442548114019147e+00
   2.9666205582617486e+01   1.3306847520162020e+00   5.1442542710822643e+00
   2.9761883138810237e+01   1.3459211871398784e+00   5.1392331772319801e+00
   2.9653863014102665e+01   1.3255927262167873e+00   5.1492769250697545e+00
   2.9890276618908381e+01   1.3152629130939151e+00   5.1593194576869621e+00
   3.0000136367285499e+01   1.3204157018274487e+00   5.1593195932175195e+00
   2.9999182701341731e+01   1.3459213532678891e+00   5.1442542800859385e+00
   3.0236888401987727e+01   1.3357387766990656e+00   5.1542992665401401e+00
   3.0227569213287744e+01   1.3458881333078729e+00   5.1492743114684973e+00
   2.9887814167002393e+01   1.3408055061069009e+00   5.1442548339538909e+00
   2.9863468975423622e+01   1.3306852091606214e+00   5.1492744916262172e+00
   3.0085750535948307e+01   1.3306857024285992e+00   5.1542981516908712e+00
   3.0165252906364866e+01   1.3003710572439042e+00   5.1743858546133641e+00
   3.0454599865805069e+01   1.2900702197942406e+00   5.1844275545971321e+00
   3.0742752965739093e+01   1.3101787150056667e+00   5.1794079644701121e+00
   3.0397190583266227e+01   1.3053041393233902e+00   5.1743851161453440e+00
   3.0292838830312583e+01   1.2952298932339390e+00   5.1794097488494248e+00
   3.0649454042827582e+01   1.3003546505381913e+00   5.1844306041663097e+00
   3.0516661332223240e+01   1.2951970209581205e+00   5.1844301106848167e+00
   3.0606544353138140e+01   1.3053216300607675e+00   5.1794085033339030e+00
   3.0809524329430534e+01   1.3509796388008348e+00   5.1593187218642012e+00
   3.1185272754961773e+01   1.3357227618997538e+00   5.1743855285439828e+00
   3.0945082278331125e+01   1.3459048379321685e+00   5.1643435347639954e+00
   3.0939756847771768e+01   1.3357221813737177e+00   5.1693639178864785e+00
   3.1061579267430350e+01   1.3509804105594023e+00   5.1643422782818842e+00
   3.1316495532351009e+01   1.3407744763240081e+00   5.1743848598254125e+00
   3.0121291804232619e+01   1.3255603034990742e+00   5.1593186603318610e+00
   3.0134079129287954e+01   1.3152631297534640e+00   5.1643434641833910e+00
   3.0472699564777816e+01   1.3204152874993662e+00   5.1693638168640828e+00
   3.0228775511415641e+01   1.3102099112920376e+00   5.1693624131361764e+00
   3.0346970059243887e+01   1.3255765139514324e+00   5.1643427788839054e+00
   3.0437647710468774e+01   1.3458876719476101e+00   5.1542988254696320e+00
   3.0573871381976293e+01   1.3407733229764331e+00   5.1593202430602165e+00
   3.0467163873268166e+01   1.3357544221969957e+00   5.1593193699795927e+00
   3.0813285123825633e+01   1.3407732124166052e+00   5.1643403265344663e+00
   3.0696511655786377e+01   1.3458874388285176e+00   5.1593192981097902e+00
   3.0843278263599885e+01   1.3255767774947664e+00   5.1743878949604749e+00
   3.0605374268449733e+01   1.3152637266286780e+00   5.1743843155156473e+00
   3.0939828275374222e+01   1.3204321240992494e+00   5.1794085607626421e+00
   3.0842831166749690e+01   1.3152803876024799e+00   5.1794085506012815e+00
   2.9780880370947077e+01   1.2798949458715685e+00   5.1743848372437800e+00
   2.8838184260687303e+01   1.2900861626991025e+00   5.1492737653376786e+00
   2.9152531564960547e+01   1.2952132315222065e+00   5.1542969008284123e+00
   2.8952444136946522e+01   1.2850752087293857e+00   5.1542992074298590e+00
   2.8988059485391396e+01   1.2747748740753835e+00   5.1593188393419194e+00
   2.9233061032042439e+01   1.2697115837247346e+00   5.1693640216424823e+00
   2.9448211501975500e+01   1.2747745737060436e+00   5.1693631877213013e+00
   2.9292999827096459e+01   1.2799282535505272e+00   5.1643403536432899e+00
   2.9345292987117183e+01   1.3003704526829312e+00   5.1542965505705700e+00
   2.9502151838982815e+01   1.2901032074525918e+00   5.1643426051156514e+00
   2.9702228346307926e+01   1.3053031273040385e+00   5.1593196958122434e+00
   2.9697839653641964e+01   1.3003705291533771e+00   5.1643409756237837e+00
   2.9368898644212283e+01   1.2952136333570499e+00   5.1593205271626186e+00
   2.9275292042071690e+01   1.2901025846153866e+00   5.1593190052302118e+00
   2.9403043325635682e+01   1.2850431052925160e+00   5.1643406411113348e+00
   2.8590037500680790e+01   1.2697115420356175e+00   5.1542988339255214e+00
   2.8566159312089646e+01   1.2747585266224055e+00   5.1492779340486754e+00
   2.8489569041085829e+01   1.2647426387367899e+00   5.1542975916348066e+00
   2.8624799746880814e+01   1.2599066041438136e+00   5.1593207179031033e+00
   2.8795850438959882e+01   1.2697114469407824e+00   5.1593189762642524e+00
   2.8336226191405764e+01   1.2552288799372433e+00   5.1542974529465875e+00
   2.8551546424992186e+01   1.2552292133820644e+00   5.1593212669252591e+00
   2.8747259519003389e+01   1.2850744873836442e+00   5.1492756840631904e+00
   2.9017860360480768e+01   1.2697114295662075e+00   5.1643431656939320e+00
   2.8905747517838559e+01   1.2647096890886935e+00   5.1643424506950630e+00
   2.8838046918359968e+01   1.2599067481160036e+00   5.1643410806036982e+00
   2.9159843637789315e+01   1.2647101536134708e+00   5.1693635675658829e+00
   2.9111953435898783e+01   1.3204310731652300e+00   5.1392331031314686e+00
   2.9122919553946680e+01   1.3101918186310479e+00   5.1442536594041481e+00
   2.9352586788287674e+01   1.3102086174784662e+00   5.1492771329940101e+00
   2.9447515736702851e+01   1.3152626372739629e+00   5.1492746397954718e+00
   2.8822650257236617e+01   1.3004023703934458e+00   5.1442552341085577e+00
   2.9019322150442935e+01   1.3053345198645994e+00   5.1442546932826527e+00
   2.9230024742021449e+01   1.3255924692765717e+00   5.1392322560713488e+00
   2.9446100419983864e+01   1.3255925099284067e+00   5.1442529787979350e+00
   2.9561281205052669e+01   1.3204474591778792e+00   5.1492742511130150e+00
   2.9668189334881713e+01   1.3152636587140463e+00   5.1542988502593277e+00
   2.9469704398401387e+01   1.3053031730761637e+00   5.1542994654121053e+00
   2.9797631966682957e+01   1.3102087523318013e+00   5.1593183775828866e+00
   2.9888163550438058e+01   1.2747753995558511e+00   5.1794088562522589e+00
   2.9669261781305817e+01   1.2747754269218117e+00   5.1743840232258869e+00
   2.9396148622009434e+01   1.2647263261565944e+00   5.1743863817363378e+00
   2.9675792292080260e+01   1.2696798235259312e+00   5.1794089821861915e+00
   2.9581099264987920e+01   1.2647271319594209e+00   5.1794078613908363e+00
   2.9930657524155428e+01   1.3003700086606298e+00   5.1693650128171127e+00
   2.9804274287070303e+01   1.2952301003212570e+00   5.1693653826120816e+00
   3.0064573946921868e+01   1.2952300010546520e+00   5.1743853080134521e+00
   3.0001080618497411e+01   1.2798948977522757e+00   5.1794089926544213e+00
   3.0087339485174642e+01   1.2747429945565023e+00   5.1844287618015326e+00
   3.0111637505472196e+01   1.2850427432903384e+00   5.1794055433628756e+00
   3.0324172862694557e+01   1.2850428607734445e+00   5.1844301661490775e+00
   2.9765634646243072e+01   1.2647275133554421e+00   5.1844279870092702e+00
   3.0176584504078555e+01   1.2900706008778327e+00   5.1794075949651717e+00
   3.0987366208104056e+01   1.3715577300793069e+00   5.1492749579140682e+00
   3.0058810629320551e+01   1.3815680594166464e+00   5.1241657655526289e+00
   3.0290639046357558e+01   1.3865933260504799e+00   5.1241653118550090e+00
   3.0151167493954095e+01   1.3765391433169811e+00   5.1291864526956257e+00
   3.0275399465741966e+01   1.3715572606668378e+00   5.1342100502004335e+00
   3.0509483782040856e+01   1.3815690836977763e+00   5.1342106105174832e+00
   3.0277956208616345e+01   1.3815688099907257e+00   5.1291865103197933e+00
   3.0358297532625393e+01   1.3664877877705370e+00   5.1392299679469513e+00
   3.0582532990824433e+01   1.3561281085277814e+00   5.1492759693099286e+00
   3.0724541845561340e+01   1.3715572528226361e+00   5.1442546254359076e+00
   3.0612252563473632e+01   1.3665048128849897e+00   5.1442547499809237e+00
   3.0742786561681246e+01   1.3865940292208794e+00   5.1342095571813884e+00
   3.0995000424794895e+01   1.3815855367791101e+00   5.1442540664815040e+00
   3.1133904596980521e+01   1.3915912722752604e+00   5.1392312655558445e+00
   3.1004323194481302e+01   1.3866110244681928e+00   5.1392300786652445e+00
   3.0499258497022172e+01   1.3715569372324810e+00   5.1392307799080168e+00
   3.0633599513258410e+01   1.3765564698667585e+00   5.1392302808470234e+00
   3.0849761158021206e+01   1.3765558886525482e+00   5.1442541067520855e+00
   2.9805866252618358e+01   1.3613765730000378e+00   5.1291860396567781e+00
   2.9923815538647172e+01   1.3664872168800712e+00   5.1291886397092412e+00
   2.9883900480244023e+01   1.3561287756816049e+00   5.1342103994704065e+00
   3.0114097200419820e+01   1.3561282236088770e+00   5.1392308170760099e+00
   2.9881676265262847e+01   1.3510130924317365e+00   5.1392330529687751e+00
   3.0011316954111059e+01   1.3613772345419044e+00   5.1342099531192122e+00
   2.9653657025994519e+01   1.3561623083030350e+00   5.1291862033709466e+00
   3.0014928906728194e+01   1.3715410823570442e+00   5.1291889680947760e+00
   3.0249130136462089e+01   1.3613773054331371e+00   5.1392310213836652e+00
   3.0344327130479790e+01   1.3561281465301194e+00   5.1442544769545151e+00
   3.0093293727436667e+01   1.3510129568442402e+00   5.1442534152863484e+00
   3.0348655860180379e+01   1.3509804011218809e+00   5.1492778349993085e+00
   3.0446429430430442e+01   1.4014472620691718e+00   5.1191447412346802e+00
   3.0557186234220076e+01   1.3965291891047174e+00   5.1241655524575158e+00
   3.0665558555122214e+01   1.3915907093068953e+00   5.1291867351259750e+00
   3.0831955726572939e+01   1.4063828757044474e+00   5.1241670672427109e+00
   3.0677796135700376e+01   1.4014637993565531e+00   5.1241657776418732e+00
   3.0431389933676229e+01   1.3915913300403759e+00   5.1241664655288961e+00
   3.0841324381871850e+01   1.4113802478999928e+00   5.1191442458923229e+00
   3.0929710398488862e+01   1.4014645761039024e+00   5.1291855413682894e+00
   3.1216375968842414e+01   1.3715578277760299e+00   5.1542988933605960e+00
   3.1211684070541292e+01   1.3613601249047660e+00   5.1593203209938192e+00
   3.0852625092206871e+01   1.3665046864503489e+00   5.1492751245856621e+00
   3.0828736286498188e+01   1.3561284575421024e+00   5.1542992370465388e+00
   3.1063174301116973e+01   1.3561453614816377e+00   5.1593206055359540e+00
   3.1246593285959253e+01   1.3865763457823339e+00   5.1442543815004180e+00
   3.1219193060988523e+01   1.3815518442851462e+00   5.1492746901195217e+00
   3.1074656017192353e+01   1.3765565320328650e+00   5.1492746715472837e+00
   3.1482826154013651e+01   1.3815514766034753e+00   5.1542989331670785e+00
   3.1339503427899988e+01   1.3665042982354438e+00   5.1593200885981494e+00
   3.1706086044008948e+01   1.3613599305404831e+00   5.1693650910854405e+00
   3.1715757241532071e+01   1.3715413823895395e+00   5.1643404934508865e+00
   3.2354685503579319e+01   1.3407910754722872e+00   5.1944743386628494e+00
   3.1513972752087778e+01   1.3152470736482400e+00   5.1944735100865138e+00
   3.0608457548260059e+01   1.2900866747059849e+00   5.1894520088208251e+00
   3.0900544194614401e+01   1.3053209622312587e+00   5.1844292563051804e+00
   3.1101574813839783e+01   1.3152807560592923e+00   5.1844289492897904e+00
   3.1327707228417786e+01   1.3152476224791707e+00   5.1894498746988340e+00
   3.1096564539654295e+01   1.3052885135348715e+00   5.1894496516231143e+00
   3.0877856226166010e+01   1.3003544078024087e+00   5.1894504281202929e+00
   3.1587498383476934e+01   1.3306700034225620e+00   5.1844287912594273e+00
   3.1494058546058781e+01   1.3203986687056575e+00   5.1894499615555532e+00
   3.1435149633286557e+01   1.3459047127895083e+00   5.1743837098128642e+00
   3.1962936115049551e+01   1.3357229911039712e+00   5.1894501852141408e+00
   3.2104959653711042e+01   1.3407910946175039e+00   5.1894502897824895e+00
   3.2088063065378265e+01   1.3306699487877984e+00   5.1944738671259616e+00
   3.1590978087740638e+01   1.3255772432249295e+00   5.1894529342826399e+00
   3.1834084138401877e+01   1.3255776815999685e+00   5.1944733212634118e+00
   3.2668930498864341e+01   1.4965407071740322e+00   5.0940329770886938e+00
   3.2821949528383229e+01   1.5015994178047203e+00   5.0940314527915493e+00
   3.2514934571712828e+01   1.4917101998078552e+00   5.0940303681345949e+00
   3.2680500677640268e+01   1.4917096537621117e+00   5.0990547897754013e+00
   3.2733830149090188e+01   1.4815931433255936e+00   5.1090973228151331e+00
   3.2619303131985802e+01   1.4515319426377407e+00   5.1291871348560640e+00
   3.1707310835532347e+01   1.4615877249316418e+00   5.1040778339765192e+00
   3.1966494197445705e+01   1.4615871076280622e+00   5.1090986678601613e+00
   3.1898478375602902e+01   1.4515317147047264e+00   5.1141224162902255e+00
   3.1985728330842509e+01   1.4465349409975312e+00   5.1191441382917553e+00
   3.2511056442890336e+01   1.4665795037107530e+00   5.1141195482704660e+00
   3.2491887778663475e+01   1.4615520371485331e+00   5.1191432491844839e+00
   3.2706735669061260e+01   1.4665790886700987e+00   5.1191439689493485e+00
   3.2059760625971244e+01   1.4565319136056880e+00   5.1141219189434697e+00
   3.2324613515035658e+01   1.4565322364198552e+00   5.1191417603819200e+00
   3.1337842321928743e+01   1.4414700493834485e+00   5.1090969750415809e+00
   3.1485848603028014e+01   1.4465345914345566e+00   5.1091002369017255e+00
   3.1334180779200693e+01   1.4365364361189203e+00   5.1141215654299605e+00
   3.1750680155910711e+01   1.4465350452640555e+00   5.1141200286308814e+00
   3.1173479363584267e+01   1.4315754132660921e+00   5.1141194893804300e+00
   3.1559573632195729e+01   1.4565157991386388e+00   5.1040768625421737e+00
   3.1815217807334371e+01   1.4414865112881463e+00   5.1191415476821991e+00
   3.2440943976649585e+01   1.4867676908000862e+00   5.0990549704031887e+00
   3.2333395880909080e+01   1.4764686161916751e+00   5.1040759966263289e+00
   3.1924179037390033e+01   1.4714654999475771e+00   5.0990545790563626e+00
   3.2428961675552550e+01   1.4714820567833742e+00   5.1090993431308265e+00
   3.2668430029246338e+01   1.4714825281514496e+00   5.1141201829677811e+00
   3.2352301936710056e+01   1.4414862002081776e+00   5.1291860320127540e+00
   3.2538041291935478e+01   1.4414865966544916e+00   5.1342105338590249e+00
   3.2683717285579178e+01   1.4565324848831616e+00   5.1291866299025761e+00
   3.2675633315587241e+01   1.4615525595971808e+00   5.1241671525924666e+00
   3.2919531159115536e+01   1.5118076402160672e+00   5.0890081072935045e+00
   3.2764906184427552e+01   1.5067822925143592e+00   5.0890085590949861e+00
   2.6341019606406448e+01   1.2599583255995239e+00   5.0638975226367258e+00
   2.6121370181139845e+01   1.2552804123992085e+00   5.0287404672228604e+00
   2.6206014201375421e+01   1.2552655236963379e+00   5.0387853879582067e+00
   2.6156681385662328e+01   1.2504246518493383e+00   5.0387845269760607e+00
   2.6333652772750497e+01   1.2647497849248506e+00   5.0387841458459537e+00
   2.6035702208267995e+01   1.2402535912793433e+00   5.0438068634203415e+00
   2.6453483624412666e+01   1.2748009047785638e+00   5.0387853655375059e+00
   2.6184550213298852e+01   1.2599418292986420e+00   5.0488289156271575e+00
   2.6210195039896536e+01   1.2599570749114135e+00   5.0538531637419162e+00
   2.6128933987402949e+01   1.2552671471038432e+00   5.0488297067940682e+00
   2.6055123346315632e+01   1.2453718440527135e+00   5.0488314985655105e+00
   2.5955274478763826e+01   1.2402532995922648e+00   5.0538522032305409e+00
   2.6058028483895651e+01   1.2453725092964660e+00   5.0588761046135691e+00
   2.6143744177105734e+01   1.2503950411773381e+00   5.0588738399062496e+00
   2.6453814486103756e+01   1.2799569660198933e+00   5.0488303625528648e+00
   2.6363578866948640e+01   1.2697524058271921e+00   5.0438057865666046e+00
   2.6242881327652455e+01   1.2647515196574819e+00   5.0488288843003160e+00
   2.6455616238680435e+01   1.2748180890488310e+00   5.0538543878539723e+00
   2.6278098326058110e+01   1.2647512921768005e+00   5.0538530193003854e+00
   2.6527936878435515e+01   1.2799252136624801e+00   5.0538537123027849e+00
   2.6497465514079853e+01   1.2599297029590577e+00   5.0789670068261925e+00
   2.6189224393483876e+01   1.2504108535652190e+00   5.0638983072867036e+00
   2.6130561968311419e+01   1.2402224809995390e+00   5.0689209073314023e+00
   2.6237610221136947e+01   1.2453882860191943e+00   5.0739408452251187e+00
   2.6222095394412971e+01   1.2402387407234630e+00   5.0789659840585815e+00
   2.6386573313211116e+01   1.2552539533020814e+00   5.0739425409833956e+00
   2.6583992160415409e+01   1.2799410696492322e+00   5.0588738627899374e+00
   2.6515716882055614e+01   1.2748183353193965e+00   5.0588747791405817e+00
   2.6454996847287017e+01   1.2647678471481019e+00   5.0689214589054616e+00
   2.6667674803742507e+01   1.2747871000952724e+00   5.0739434868706592e+00
   2.6507168673703251e+01   1.2647692365252834e+00   5.0739415355100626e+00
   2.6738693714269697e+01   1.2799419827828575e+00   5.0739432699816227e+00
   2.6549624481645196e+01   1.2599298316713010e+00   5.0839873098458215e+00
   2.6655187208777715e+01   1.2599310417754330e+00   5.0940313915313267e+00
   2.6395712116369243e+01   1.2504120858113237e+00   5.0839876501819035e+00
   2.6336705005780981e+01   1.2453887498539931e+00   5.0839889869676371e+00
   2.6270745462806286e+01   1.2402387508614816e+00   5.0839862641594458e+00
   2.6444529650692388e+01   1.2453573233741779e+00   5.0940337711332750e+00
   2.6381250862223364e+01   1.2402395578783674e+00   5.0940303819506729e+00
   2.6500427461159433e+01   1.2503815020334730e+00   5.0940323075284883e+00
   2.6791703625201979e+01   1.2799417927415309e+00   5.0789636210700815e+00
   2.6717890539132483e+01   1.2747875337618531e+00   5.0789647463920833e+00
   2.6609812132850728e+01   1.2647383234319212e+00   5.0839859205684377e+00
   2.6822620974519939e+01   1.2748034714036764e+00   5.0890094883455559e+00
   2.6663282338958833e+01   1.2647377993698927e+00   5.0890098333501754e+00
   2.6898151695625092e+01   1.2799417735379373e+00   5.0890079817550005e+00
   2.7474812715866491e+01   1.2647249072802529e+00   5.1291881992055481e+00
   2.6710288443352351e+01   1.2599470631266534e+00   5.0990564013047619e+00
   2.6821301504701875e+01   1.2599174001526485e+00   5.1090970784666672e+00
   2.6558839515368945e+01   1.2503977161007602e+00   5.0990557099103979e+00
   2.6550668616407890e+01   1.2453735073366952e+00   5.1040783104929925e+00
   2.6486413109672078e+01   1.2402078290991723e+00   5.1040755557319306e+00
   2.6664721162309309e+01   1.2453742128443757e+00   5.1141197762892920e+00
   2.6598166711804893e+01   1.2402244099283861e+00   5.1141206988141841e+00
   2.6758141876312077e+01   1.2552263406475490e+00   5.1090991401406676e+00
   2.6951586863890093e+01   1.2799264777632935e+00   5.0940322057615433e+00
   2.6876289196891932e+01   1.2748039468480052e+00   5.0940333809727445e+00
   2.6776554513189819e+01   1.2647543829398238e+00   5.0990553449005027e+00
   2.7035946072704039e+01   1.2747733609695617e+00   5.1090987519851101e+00
   2.6951175418199277e+01   1.2697093069050169e+00   5.1090991209589127e+00
   2.7059761372238096e+01   1.2799267492711959e+00   5.1040766577009222e+00
   2.6874730035047012e+01   1.2599172616596910e+00   5.1141212731908405e+00
   2.6773252417268747e+01   1.2503986354068990e+00   5.1191451037344606e+00
   2.6712403849183737e+01   1.2453752142933503e+00   5.1191437037142329e+00
   2.6905500873535452e+01   1.2503996272780318e+00   5.1241653639662044e+00
   2.7136898147532744e+01   1.2799270928648891e+00   5.1141211843064474e+00
   2.7067273368192001e+01   1.2747732869428274e+00   5.1141224772157212e+00
   2.6938603295033857e+01   1.2647556931138153e+00   5.1141195673492099e+00
   2.7188734792978856e+01   1.2747737420010787e+00   5.1191434934204789e+00
   2.7263829925983508e+01   1.2503677252548342e+00   5.1291855670312581e+00
   2.7331647980581831e+01   1.2552434634218788e+00   5.1291884475291853e+00
   2.7716223770321580e+01   1.2552447649673144e+00   5.1392324010401476e+00
   2.7469172718845702e+01   1.2453595611025639e+00   5.1392329614868757e+00
   2.7591833671909772e+01   1.2599196978918297e+00   5.1342107817999114e+00
   2.7839938296399346e+01   1.2503847331659494e+00   5.1442545713637271e+00
   2.7403894118635770e+00   5.4267804591718642e-02   4.7424001695403977e+00
   2.5672110086965971e+00   1.4479419372230359e-01   4.7323434755141474e+00
   2.7864808055877579e+00   3.2955168562389371e-02   4.7150450219001963e+00
   2.3372878557007049e+00   3.1057933930219223e-01   4.7323476247238005e+00
   2.4495361995996308e+00   2.2002380078751699e-01   4.7222999984200662e+00
   2.2318137696884568e+00   4.0099316412743086e-01   4.7675160292445184e+00
   2.4776386133017865e+00   1.8007677039324652e-01   4.7423922068723625e+00
   2.3663725122733741e+00   1.2552861470047985e+00   4.7273301256522871e+00
   3.0475768472993425e+00   1.5673059664928783e+00   4.7323527234975451e+00
   2.4520151283352640e+00   1.3153302327766105e+00   4.7323473600679904e+00
   2.2320190717583488e+00   1.1200273292406926e+00   4.7624995753977446e+00
   2.9726565893054309e+00   1.5469689499047325e+00   4.7273317266092763e+00
   2.7743488383119739e+00   1.4715178885077702e+00   4.7423958387227660e+00
   2.5739837475644638e+00   1.3916224670178452e+00   4.7524438435287184e+00
   2.5434225194288897e+00   1.3816115236550979e+00   4.7675206082194439e+00
   2.2023249906169617e+00   1.0997493100335956e+00   4.7424008642253206e+00
   2.1040633290412147e+00   5.9701179710782748e-01   4.7725375009248108e+00
   2.0824965931530355e+00   6.8223490337840909e-01   4.7775660754423459e+00
   2.1567546335033105e+00   5.5689863160601660e-01   4.7624930609390574e+00
   2.1087745214882507e+00   9.5378278099057245e-01   4.7876187387644578e+00
   2.0768880499754916e+00   8.7832628952692082e-01   4.7273258247383163e+00
   2.1277437039349922e+00   1.0190617991279773e+00   4.7323480663787381e+00
   2.0616844055967927e+00   7.8303263239514798e-01   4.7172811162538331e+00
   2.2186363403886182e+00   4.5637933027080674e-01   4.7222997348236184e+00
   2.8961312701032735e+00   3.1355563837723577e+00   1.5357683069017025e+00
   3.6168767012499887e+00   2.9582265392918030e+00   1.5681426529050675e+00
   3.2590079726237251e+00   3.0288395454994204e+00   1.5279097054096762e+00
   3.0611983636051749e+00   3.0789901028074720e+00   1.5681395209947051e+00
   3.3683808703806046e+00   3.0035289473563016e+00   1.5480311983346351e+00
   3.5543395337464596e+00   2.9633437941885501e+00   1.5379789960620509e+00
   1.1498912658194557e+01   1.9861275358960959e+00   1.4659923340431982e+00
   1.1517113497359050e+01   1.9873630881895237e+00   1.4427375237114393e+00
   1.1399882305369562e+01   1.9911730994598993e+00   1.5514711525142366e+00
   1.1417220674993587e+01   1.9924160077490403e+00   1.5288442178359929e+00
   1.1416894246162613e+01   1.9917872904462890e+00   1.5238153981549289e+00
   1.1458671105276082e+01   1.9861468957408313e+00   1.5024447957155984e+00
   1.1531596107963113e+01   1.9879841892790695e+00   1.4307971007594591e+00
   1.1607664725402694e+01   1.9842036717842275e+00   1.4000032004411558e+00
   1.1628434298445386e+01   1.9829450811935097e+00   1.4012591755031139e+00
   1.2229599486132733e+01   1.9219829001614626e+00   1.2806110817953393e+00
   1.1620250284328733e+01   1.9835733302394642e+00   1.3956045111699216e+00
   1.1674252191955294e+01   1.9854445327714718e+00   1.3767510433100618e+00
   1.1659218794391244e+01   1.9810527391693347e+00   1.3849205233478032e+00
   1.1748240570156069e+01   1.9804039354067535e+00   1.3566446645616426e+00
   1.1795312485827623e+01   1.9772577484951335e+00   1.3459584614409406e+00
   1.1846948989290279e+01   1.9722242067893125e+00   1.3352780359352248e+00
   1.1779487529307971e+01   1.9722340794540005e+00   1.3491023202325276e+00
   1.1866824533124731e+01   1.9653077475266134e+00   1.3283642327992540e+00
   1.2071565609156792e+01   1.9420762049555980e+00   1.3013446705840992e+00
   1.2044070724927931e+01   1.9458457496958061e+00   1.3063729296274951e+00
   1.1933800132124302e+01   1.9596824580500041e+00   1.3164259386283217e+00
   1.2083423686626153e+01   1.9452131773577483e+00   1.2969465608797277e+00
   1.2178044973546289e+01   1.9301647175675587e+00   1.2906614546254289e+00
   1.2229697307280544e+01   1.9226177822464212e+00   1.2799805591731799e+00
   1.2242765204317651e+01   1.9238643814707506e+00   1.2787256233207032e+00
   1.2472737838799306e+01   1.8905585617415441e+00   1.2655303722462292e+00
   1.2451903039663938e+01   1.8930734032494896e+00   1.2655298810849551e+00
   1.2347980695471993e+01   1.9081608998281490e+00   1.2743268853342089e+00
   1.2430124497079262e+01   1.8999891503865178e+00   1.2642748094074596e+00
   1.2480442693702978e+01   1.8918074071567739e+00   1.2617616219309522e+00
   1.2533372984816257e+01   1.8824206416261171e+00   1.2630151094737490e+00
   1.2637005655816569e+01   1.8685954141246499e+00   1.2605047976421020e+00
   1.2805088015852020e+01   1.8271540885388584e+00   1.2548501612880347e+00
   1.2780898682111834e+01   1.8472275936378826e+00   1.2535931806531226e+00
   1.2859498189742979e+01   1.8422033824334612e+00   1.2611330556620954e+00
   1.2782372200370633e+01   1.8340315849897229e+00   1.2554773426493433e+00
   1.3022121075209370e+01   1.8152103690627981e+00   1.2592474476983719e+00
   1.3026792012382019e+01   1.8164705529855876e+00   1.2598772224740105e+00
   1.2907177747114083e+01   1.8158398464915630e+00   1.2542218852126585e+00
   1.2818436818837974e+01   1.8340305391855281e+00   1.2523366987889208e+00
   1.2812006424907848e+01   1.8396847131149565e+00   1.2523367495671469e+00
   1.2804074338733784e+01   1.8428242026495323e+00   1.2529631045686525e+00
   1.3326600493652311e+01   1.7800448490204142e+00   1.2523358364282648e+00
   1.3177965334405231e+01   1.7882183983613769e+00   1.2504504942120693e+00
   1.3020331949027490e+01   1.8183479220977929e+00   1.2579914232815732e+00
   1.3225529020063091e+01   1.7919947694395257e+00   1.2548471164107653e+00
   1.3034660953032917e+01   1.8152110601798350e+00   1.2567349690382374e+00
   1.3305317776624653e+01   1.7731354514759534e+00   1.2441681952483057e+00
   1.3330444266009668e+01   1.7643336635415092e+00   1.2466861899345443e+00
   1.3330800308993680e+01   1.7674792640401893e+00   1.2435395126918634e+00
   1.3446830141423145e+01   1.7618213001090786e+00   1.2504511315798472e+00
   1.3475047055556354e+01   1.7530282015427243e+00   1.2460530116697388e+00
   1.3510209026976229e+01   1.7473655491360662e+00   1.2447981427201193e+00
   5.2127516792843657e+01   1.8542128581892983e+00   1.3956043719516789e+00
   5.5378096925749205e+01   1.8849764360035377e+00   1.4037739706197376e+00
   5.4356067600029057e+01   1.8737549127724686e+00   1.5514706942916412e+00
   5.8996549331206346e+01   1.9195850915439188e+00   1.5376423486086328e+00
   5.9045486099009182e+01   1.9195702255854470e+00   1.5169003961431471e+00
   5.8997430257545417e+01   1.9195836705964389e+00   1.5338706670370148e+00
   5.9018986617892295e+01   1.9195830888353815e+00   1.5326138256774997e+00
   5.9030211471651782e+01   1.9195789775801790e+00   1.5250706308774844e+00
   5.9034699148089551e+01   1.9195718688930659e+00   1.5200430376858596e+00
   5.9063434399152335e+01   1.9195685459329703e+00   1.5143868460268739e+00
   5.9093324963822582e+01   1.9189373633847093e+00   1.5087293432498663e+00
   5.9101156458989706e+01   1.9195634228430665e+00   1.5037013194830300e+00
   5.4360513743173456e+01   1.8737736713059887e+00   1.5470699320363406e+00
   5.4664313532918321e+01   1.8850552460279648e+00   1.5370130201876839e+00
   5.4343054903415293e+01   1.8743930369846822e+00   1.5671840082148505e+00
   5.4356777792763594e+01   1.8743939531745468e+00   1.5684419724084901e+00
   5.4356746873276229e+01   1.8744114352535701e+00   1.5621560775047680e+00
   5.4345863021515939e+01   1.8737617043834511e+00   1.5652985117165037e+00
   5.4347521137935573e+01   1.8744100350815265e+00   1.5596422105225825e+00
   5.4357401061267680e+01   1.8744112022952117e+00   1.5615273550529893e+00
   5.4360824362882283e+01   1.8737576164075771e+00   1.5564986687011988e+00
   5.3647050433863768e+01   1.8756288543535180e+00   1.5370153520396090e+00
   5.4366964557627625e+01   1.8744002603305554e+00   1.5401569002218067e+00
   5.4438361200617663e+01   1.8750059469087965e+00   1.5426709237123921e+00
   5.4231511851866145e+01   1.8731122364613557e+00   1.5414140504996130e+00
   5.4730965968008945e+01   1.8844128292218258e+00   1.5156439279907528e+00
   5.4678213126293976e+01   1.8844214413312237e+00   1.5307288663232954e+00
   5.4686344625725980e+01   1.8844198540041224e+00   1.5282136360707523e+00
   5.3674888096876742e+01   1.8762528338955917e+00   1.5294713169405194e+00
   5.3675847073788098e+01   1.8762517451491489e+00   1.5269573419578077e+00
   5.4697764222405880e+01   1.8844177158452615e+00   1.5244427161246443e+00
   5.4697416728973742e+01   1.8844149703274073e+00   1.5194150073328165e+00
   5.3705638075971336e+01   1.8756205887799600e+00   1.5206723889151450e+00
   5.3699219298001353e+01   1.8762472393992620e+00   1.5181574199882732e+00
   5.4272218731912972e+01   1.8806367296053159e+00   1.5093586830547934e+00
   5.4680414324727764e+01   1.8837795703483902e+00   1.5068435148230346e+00
   5.3712364795895795e+01   1.8762437101096090e+00   1.5118731703680766e+00
   5.3737358075650882e+01   1.8762363483694338e+00   1.5068435521975672e+00
   5.4217151161210552e+01   1.8800121899670614e+00   1.5093582378200334e+00
   5.4748351385569926e+01   1.8850356008318532e+00   1.5037020258564551e+00
   5.4713140846995657e+01   1.8837765453017004e+00   1.5011870724670615e+00
   5.3753372652359467e+01   1.8762335975544269e+00   1.5018162676018110e+00
   5.3778151530480443e+01   1.8756050697359063e+00   1.4999304656951127e+00
   5.6804342078986693e+01   1.8944886390604121e+00   1.5502129256367743e+00
   5.6845462452042710e+01   1.8938591816008006e+00   1.5483274715472091e+00
   5.6838893277193932e+01   1.8932431810928549e+00   1.5690698848624560e+00
   5.6803774394870139e+01   1.8938690020714706e+00   1.5652994636770541e+00
   5.6788785346736347e+01   1.8951149769048121e+00   1.5590124951292657e+00
   5.6822515745549509e+01   1.8938640778007760e+00   1.5571277805499457e+00
   5.6949915715883463e+01   1.9039074999880836e+00   1.5370150145225252e+00
   5.6767786379663470e+01   1.8951053416201356e+00   1.5407856495248269e+00
   5.6677655781031341e+01   1.9020173411857169e+00   1.5382706339091230e+00
   5.7656000588186707e+01   1.9020237456550815e+00   1.5495857731452065e+00
   5.8167764009644500e+01   1.9039234829691636e+00   1.5684409134655415e+00
   5.8129692951123268e+01   1.9058093866182868e+00   1.5652983343938396e+00
   5.8132036258874898e+01   1.9058059161163459e+00   1.5590133600534217e+00
   5.8138398887544099e+01   1.9051732643103567e+00   1.5552412291936142e+00
   5.9180099001010674e+01   1.9114314829191765e+00   1.5671842938915654e+00
   5.9139021540743975e+01   1.9120658372935277e+00   1.5703269919919887e+00
   5.9118838018249676e+01   1.9133184584884451e+00   1.5665569547246248e+00
   5.9159617644543914e+01   1.9114313800042249e+00   1.5665557525338194e+00
   5.8645263868351208e+01   1.9095505380699414e+00   1.5671851662968372e+00
   5.8645662002599664e+01   1.9095491314675561e+00   1.5646712489326977e+00
   5.9122412697057428e+01   1.9133163093601397e+00   1.5621551645921992e+00
   5.9132402690477917e+01   1.9133127503714360e+00   1.5552420613702582e+00
   5.8646430732532885e+01   1.9095788958387621e+00   1.5609001154497981e+00
   5.8645251376133196e+01   1.9095666872949877e+00   1.5577556004230328e+00
   5.7649065376495578e+01   1.9020333824318645e+00   1.5665563320823401e+00
   5.7655617615676668e+01   1.9020313495513419e+00   1.5627859548972347e+00
   5.7133425104140755e+01   1.8982689224432927e+00   1.5640411929216622e+00
   5.7654466638439430e+01   1.9020300259905718e+00   1.5609002971256281e+00
   5.7656394646832688e+01   1.9020271193065585e+00   1.5558702815695151e+00
   5.7154091007686489e+01   1.8982641561253959e+00   1.5558709967607058e+00
   5.8129311604953472e+01   1.9058017820070119e+00   1.5508412653824646e+00
   5.8133186009982701e+01   1.9057884542336492e+00   1.5458132633159734e+00
