   1.0785448429600784e+01   2.4660559133463469e+00   4.6921494971110187e+00
   1.0364015397327863e+01   2.4611180362111567e+00   4.6821009134276208e+00
   1.0797995634917157e+01   2.4660550110124282e+00   4.6871241042565615e+00
   1.0366045149201984e+01   2.4560617794497639e+00   4.6921520129387755e+00
   1.0629526319572335e+01   2.5164181434651711e+00   4.6871256190517760e+00
   1.0662330144228465e+01   2.5065237691611166e+00   4.6871232404562901e+00
   1.2189457377063633e+01   2.5115243214004042e+00   4.6921497002445411e+00
   1.2339676991543094e+01   2.4862290160234597e+00   4.6971749482430667e+00
   1.2418755115391155e+01   2.4709522653369715e+00   4.7072247522097896e+00
   1.1598451374657094e+01   2.5970056921827069e+00   4.7021995989606795e+00
   1.1781050061209569e+01   2.5566432408107014e+00   4.7021994746418665e+00
   1.1973701760078795e+01   2.5417462726587603e+00   4.6971738002498533e+00
   1.1804763940957100e+01   2.5617093645692899e+00   4.6971732647960067e+00
   9.5504695853733299e+00   2.5718273118688693e+00   4.6821031171817298e+00
   1.0330345830510467e+01   2.5316590223321347e+00   4.6971729297269089e+00
   1.0001985593752323e+01   2.5215146011163556e+00   4.6770752515371363e+00
   9.7960072243735627e+00   2.5417138553959204e+00   4.6820988464011908e+00
   1.0236619724991547e+01   2.5316571374326822e+00   4.6770825909598468e+00
   1.0028563367600517e+01   2.5266124868814073e+00   4.6971745492837584e+00
   1.0335596140897922e+01   2.5769153317256590e+00   4.6921515142169641e+00
   1.0528515670050457e+01   2.5466535512027320e+00   4.6871238521329062e+00
   1.0284663979275697e+01   2.5718279116974090e+00   4.6871272282535577e+00
   1.0213658982292731e+01   2.5819033998193559e+00   4.6921519518890218e+00
   1.0246140018996275e+01   2.5868657056619302e+00   4.6871276110337492e+00
   1.0141789916593865e+01   2.6019289204744975e+00   4.6871264524730760e+00
   9.1567332291005403e+00   2.6671928758573031e+00   4.6871253190403506e+00
   9.4552071309150083e+00   2.5919300840241224e+00   4.6871287829435886e+00
   9.3614308758703668e+00   2.6068134738937192e+00   4.6821012656206440e+00
   9.3479822528131713e+00   2.6221545938929616e+00   4.6770796941154682e+00
   9.2809402469755735e+00   2.6370362507851910e+00   4.6871279694288690e+00
   9.2512080602196480e+00   2.6370044670136150e+00   4.6770798760768555e+00
   9.0530686487238690e+00   2.6621528233493117e+00   4.6720528217504071e+00
   9.3384798735685042e+00   2.6874810087245065e+00   4.6720500643381309e+00
   9.7584951116440593e+00   2.7073389741319271e+00   4.6871318888772011e+00
   9.6045175754678080e+00   2.7023833088297691e+00   4.6821082879340219e+00
   9.8255677428004642e+00   2.6773482018476797e+00   4.6820998906011049e+00
   9.6600451987860811e+00   2.7073373768832347e+00   4.6820990868573613e+00
   9.7216423549269688e+00   2.6773195309140272e+00   4.6971746060246264e+00
   1.1420588495629156e+01   2.6370071027712587e+00   4.6971771810931200e+00
   1.1499884508704469e+01   2.6169939070426382e+00   4.6971785889671578e+00
   1.1222801095986242e+01   2.6671940584555438e+00   4.6971755247915628e+00
   1.0322109754709548e+01   2.7226647718108881e+00   4.6820991642561509e+00
   1.0480453687381287e+01   2.6874811482834087e+00   4.6871331903019620e+00
   1.0399496196703472e+01   2.7174640587347603e+00   4.6871243959134947e+00
   1.2705829850824660e+01   2.5366905487716278e+00   4.7122484936926092e+00
   1.2782472377526696e+01   2.5266132752544883e+00   4.7122469108419223e+00
   1.2901681398092071e+01   2.5115264236094337e+00   4.7072241267349320e+00
   1.3070031871315312e+01   2.4862319382829785e+00   4.7122477412489081e+00
   1.2419836421650047e+01   2.5769166335513982e+00   4.7122476741753117e+00
   1.2539060934243400e+01   2.5616786372892317e+00   4.7072231798173032e+00
   1.2392022762951857e+01   2.5868684922146441e+00   4.7072259585378893e+00
   1.2201382054707452e+01   2.6221591468128245e+00   4.7122501436530921e+00
   1.2279287247454185e+01   2.6068160571123551e+00   4.7072232667054088e+00
   1.1491005385832260e+01   2.6270739820742843e+00   4.7072248314035008e+00
   1.1901686954215188e+01   2.6874841432662588e+00   4.7122466476202476e+00
   1.2005679549863222e+01   2.6621570349737631e+00   4.7072250681484729e+00
   1.2125720119502057e+01   2.6420867728993520e+00   4.6971757712871103e+00
   1.1935905179082525e+01   2.6773201461629426e+00   4.7072229478682841e+00
   1.0999120914550307e+01   2.7276565162039730e+00   4.7072241810336815e+00
   1.0993804922726845e+01   2.7174669909025071e+00   4.7072244124480918e+00
   1.1213922381731914e+01   2.6824110646392922e+00   4.7072223441448484e+00
   1.1686784007863498e+01   2.7427668076114982e+00   4.7122492498990223e+00
   1.1795207457844816e+01   2.7123259546907690e+00   4.6971738241456729e+00
   1.1732361941453819e+01   2.7276562682823910e+00   4.7122472356947567e+00
   1.1588059098672305e+01   2.7729092498420900e+00   4.7122480594598395e+00
   1.1670311847722452e+01   2.7477939207364788e+00   4.7072256849624932e+00
   1.1232918894489224e+01   3.0343315826898341e+00   4.6670286677517083e+00
   9.9377133422550479e+00   2.8232391718514749e+00   4.6770772430604222e+00
   8.9887916689615732e+00   2.7679563302599748e+00   4.6871320665507996e+00
   9.0605245680762891e+00   2.7326466169331534e+00   4.6871264976611977e+00
   8.7679527676331048e+00   2.7276514622787240e+00   4.6670336575209603e+00
   9.0622363878440080e+00   2.7377397681986118e+00   4.6770744618823930e+00
   8.7263284452155485e+00   2.7628476868440215e+00   4.6871243510788991e+00
   8.8415114425126990e+00   2.7527300461049626e+00   4.6720579051932969e+00
   8.6999659225136057e+00   2.7679817601188685e+00   4.6620011420675134e+00
   8.8315032769697819e+00   2.7576820499537882e+00   4.6871314778999640e+00
   9.7402368966179669e+00   2.7226650542672655e+00   4.6971754165098183e+00
   9.4589739460817839e+00   2.7880080949125001e+00   4.6871259424456237e+00
   9.2943925196781958e+00   2.7778962319723983e+00   4.6770764835054983e+00
   9.1124826133747430e+00   2.7880096043246922e+00   4.6821011644811348e+00
   9.4013195784711527e+00   2.7829046730677183e+00   4.6820998771937390e+00
   9.3894881347420647e+00   2.7931296041948439e+00   4.6821073028323621e+00
   8.6605293482085717e+00   2.8985894462838324e+00   4.6469290339205536e+00
   8.4871856892641961e+00   2.8936403827270176e+00   4.6519530232792050e+00
   9.1217952938189200e+00   2.9186377118521531e+00   4.6519563066476231e+00
   8.8101298280874953e+00   2.9085165754199394e+00   4.6519535417021167e+00
   9.1754939779757372e+00   2.8835445001137057e+00   4.6569812726052904e+00
   8.7568139966060148e+00   2.8432265039820113e+00   4.6620040280125385e+00
   8.5976034227564835e+00   2.7931586746823225e+00   4.6720499423043265e+00
   8.6633557508285435e+00   2.8331844326219984e+00   4.6620032308717603e+00
   8.9174844995862479e+00   2.8030232162857565e+00   4.6720523211047880e+00
   8.6631594515265622e+00   2.8785555526572533e+00   4.6670276136338433e+00
   8.3541201941752075e+00   2.8633213866739959e+00   4.6670306528580898e+00
   9.2486515399660298e+00   2.8232065489877520e+00   4.6670275718747929e+00
   9.0321378962861836e+00   2.8030249313165507e+00   4.6770751606220999e+00
   9.0885274541348551e+00   2.8533371914669088e+00   4.6770792250703579e+00
   9.1293701962333653e+00   2.9035056458317783e+00   4.6620035109067066e+00
   8.8601168026163748e+00   2.8583289809324928e+00   4.6770784968137651e+00
   9.0149061617573150e+00   2.8936422730578766e+00   4.6720581605076887e+00
   9.2505839648038446e+00   2.8886281519210586e+00   4.6720561592709036e+00
   1.0111982842714628e+01   2.7729057607127947e+00   4.6971823756466389e+00
   1.0241709581260446e+01   2.7778682215776191e+00   4.6971754060048507e+00
   9.7972031921223817e+00   2.9237796833838829e+00   4.6569850406301638e+00
   9.4368520862619238e+00   3.0243827728309962e+00   4.6519580198021195e+00
   8.5069257471771795e+00   2.9991152886219430e+00   4.5212924338086715e+00
   8.4950786677714767e+00   2.9990846876047312e+00   4.5363725900600320e+00
   8.4045858791513339e+00   3.1131978369816427e+00   4.5239362217059229e+00
   8.6073882607913657e+00   3.0643997206577023e+00   4.5213005286613264e+00
   8.4069745737570774e+00   3.0293571013013776e+00   4.5313465922457805e+00
   8.2529882862006403e+00   3.0795377508360717e+00   4.5162751698439125e+00
   8.4365376992299979e+00   3.0897142387275274e+00   4.5162752032373916e+00
   8.3357597299231809e+00   3.1097523393101056e+00   4.5263229225888875e+00
   8.2967158834443033e+00   3.1199195150205434e+00   4.5212987763687655e+00
   8.1657762745009137e+00   3.0494728143125727e+00   4.5715507853675117e+00
   8.1664139444156287e+00   3.0444584726089645e+00   4.5413961996402126e+00
   8.1394485910082395e+00   3.0543610120229703e+00   4.5564771722395445e+00
   8.1523028772736357e+00   3.0343537175917707e+00   4.5615052475656075e+00
   8.3850095817842689e+00   3.1399446411979870e+00   4.5916543882768401e+00
   8.1794789002692596e+00   3.0845930412035814e+00   4.5313457547009666e+00
   8.1846994311392400e+00   3.1348668390848653e+00   4.5514523727766321e+00
   8.4674624397216540e+00   3.1045880065294065e+00   4.5564736203785916e+00
   8.2282965943982589e+00   3.1046168102678848e+00   4.5665314619359245e+00
   8.1221815993412125e+00   3.1348396057459458e+00   4.5715525862244810e+00
   8.4480572598198584e+00   3.0897186736745264e+00   4.5715558838228150e+00
   8.3753097867900390e+00   3.0193994942165148e+00   4.6419060178597622e+00
   8.4529975802206998e+00   2.9489708406587316e+00   4.6368824756622224e+00
   8.2576365841086758e+00   2.9135514513037060e+00   4.6419001796074770e+00
   8.4258919977836761e+00   2.9440111519846344e+00   4.6368825109392073e+00
   8.6300811698978830e+00   2.9237803108367095e+00   4.6469281382685983e+00
   8.5687399611921347e+00   2.9741265151471779e+00   4.6469299416940624e+00
   8.3340329828819986e+00   3.0194001423003716e+00   4.6167820495332759e+00
   8.1425479399235350e+00   3.0092527637305997e+00   4.6268303002758202e+00
   9.0094667042739545e+00   2.9640014956734708e+00   4.6519552852094881e+00
   8.8293931189604997e+00   2.9691371414084768e+00   4.6519540496719411e+00
   9.2053049874223074e+00   2.9237462896257167e+00   4.6519506085212541e+00
   8.9398139780193411e+00   3.0243838926270459e+00   4.6419015315195749e+00
   8.6926972240757348e+00   2.9841006256670233e+00   4.6469288268584279e+00
   8.6195127905530153e+00   3.0041414619344167e+00   4.6519526103830957e+00
   8.5636829599759245e+00   3.0041414058203517e+00   4.6569768630975261e+00
   9.0189667952923518e+00   3.0243849943521055e+00   4.6569845623457518e+00
   8.2921645744532242e+00   3.0947362493675592e+00   4.6268264742054015e+00
   8.3198853475733667e+00   3.0543387945030713e+00   4.6419026145294993e+00
   8.1225217201450448e+00   3.0343282741497561e+00   4.6167796811141013e+00
   8.4109631548786368e+00   3.0243783340084054e+00   4.6117567644780619e+00
   8.1951111735249214e+00   3.0243826653806996e+00   4.6218065918317768e+00
   8.0799469619889841e+00   3.0592980797921068e+00   4.6318584928450424e+00
   8.3840765742110204e+00   3.0393521509525163e+00   4.6469306281405158e+00
   8.1059956028735289e+00   3.1348420206068432e+00   4.6268251549310566e+00
   8.2173051915645061e+00   3.0996637659930646e+00   4.5916511316746753e+00
   8.0619575679427271e+00   3.1298057942192812e+00   4.6167817149443682e+00
   8.3051074820689692e+00   3.0947368707250043e+00   4.6218030987195551e+00
   8.3489091893512661e+00   3.1132202502994746e+00   4.5993777998995764e+00
   8.0973442196775842e+00   3.0845713570953626e+00   4.6218073534265143e+00
   8.8647373728491807e+00   3.0845711872562367e+00   4.6419040672434058e+00
   8.7024889034704316e+00   3.0293372884496290e+00   4.6469323399512046e+00
   8.5744523935109687e+00   3.0592987356990786e+00   4.6419043275127363e+00
   9.0497964836384579e+00   3.0393216671346366e+00   4.6569776153073121e+00
   8.9468763088561261e+00   3.1297754899333712e+00   4.6368818740171465e+00
   8.6512310191659996e+00   3.0896916231771963e+00   4.6017069454708643e+00
   8.6314814423493971e+00   3.1149223677941391e+00   4.6218011740790583e+00
   8.8275838109737030e+00   3.1046235333084615e+00   4.6218057463950970e+00
   8.8037427686206851e+00   3.1248344937683306e+00   4.6268318921075151e+00
   8.5889307871773539e+00   3.1097573514232963e+00   4.6268301072645261e+00
   8.7231184846994925e+00   3.1182112709928052e+00   4.6345832529378264e+00
   8.8595655086626568e+00   3.1132177707908957e+00   4.6345850249504625e+00
   9.4756122513903023e+00   2.9841027364319621e+00   4.6569767655486656e+00
   9.4119512505366281e+00   2.9741261204313796e+00   4.6569783838422083e+00
   9.3661993073068324e+00   2.9741248813676084e+00   4.6519553439222623e+00
   9.2014766887125781e+00   3.0194018965064742e+00   4.6519519983028914e+00
   9.2499327801381899e+00   2.9791111188345840e+00   4.6519516471124769e+00
   9.8036621905993364e+00   2.9691384413290445e+00   4.6569779580071602e+00
   9.7025276526703603e+00   3.0293359273577107e+00   4.6569824894665182e+00
   9.8891216426878366e+00   3.0342988542194962e+00   4.6620060662782130e+00
   9.3298431507370996e+00   3.1097593363125742e+00   4.6569815687421103e+00
   9.4546653078266072e+00   3.0643780108204859e+00   4.6519555630906471e+00
   9.1363075671875222e+00   3.0393219131066025e+00   4.6519520829834153e+00
   9.0661621248921538e+00   3.0694600493202269e+00   4.6519526584150341e+00
   9.0446293383924807e+00   3.1332110429138931e+00   4.6396109917564754e+00
   9.0703760300767016e+00   3.1045959535586696e+00   4.6519571336461123e+00
   9.8567557348660095e+00   3.0494488145136147e+00   4.6569852192341932e+00
   9.6652754405969201e+00   3.0593005553097861e+00   4.6569774162828361e+00
   9.8686477791716243e+00   3.1182400725227017e+00   4.6597277463519484e+00
   9.6385450393521008e+00   3.1348461015845954e+00   4.6419064194627095e+00
   9.8155255517760747e+00   3.1149232839513457e+00   4.6419077180063786e+00
   9.8754114462168090e+00   3.0543420363162803e+00   4.6620072355668079e+00
   9.7959541661836074e+00   3.0393532625535333e+00   4.6620100461023410e+00
   9.9688774113243550e+00   3.1298111339380585e+00   4.6670280997610814e+00
   9.7501305723841973e+00   3.1045958216629246e+00   4.6620049558739804e+00
   9.6871858332121921e+00   3.1231188075291900e+00   4.6697823997907300e+00
   9.8748413460139712e+00   3.1097601545006377e+00   4.6620074677138845e+00
   1.1265386080090730e+01   2.9589301101787768e+00   4.6670266432534930e+00
   1.0761197959140654e+01   2.8381744995037792e+00   4.6921521197090890e+00
   1.0771872359273015e+01   2.8030298092085570e+00   4.7122487076489428e+00
   1.0764882645953275e+01   2.8079544159774823e+00   4.6821003221406663e+00
   1.0832846988838575e+01   2.7829348895796038e+00   4.6921563533012067e+00
   1.0669414111583729e+01   2.8281806528311035e+00   4.6921496551365891e+00
   1.0739417641739331e+01   2.8331569420452705e+00   4.6871255192820964e+00
   1.0687316998332697e+01   2.8382040355666054e+00   4.6871280368471728e+00
   1.0731669721694709e+01   2.8432286933077715e+00   4.6871243337707877e+00
   1.1480450168789810e+01   2.8130087005170354e+00   4.7072226965744965e+00
   1.1469663925076009e+01   2.8181470288259045e+00   4.6871267041932239e+00
   1.1493468101704071e+01   2.8079853349653643e+00   4.7021994513821470e+00
   1.1355244184469262e+01   2.8733911501937115e+00   4.7021990627977654e+00
   1.1388762694552906e+01   2.8582997174734963e+00   4.6871268331460225e+00
   1.1413760992707354e+01   2.8432271146372328e+00   4.6971734260154836e+00
   1.0541268670764207e+01   2.9339470592264472e+00   4.6620066522004393e+00
   1.0419757261866325e+01   2.9288891066917619e+00   4.6620081476062865e+00
   1.0587055078354130e+01   2.8985927036655332e+00   4.6770806096389936e+00
   1.0533059312655464e+01   2.9389971224848734e+00   4.6670319024225142e+00
   1.0493571464658208e+01   2.9135244080171989e+00   4.6770802217024547e+00
   1.0601449537009596e+01   2.9085197509414593e+00   4.6720586561265183e+00
   1.1304791609204523e+01   2.9085194307016446e+00   4.6921560018780841e+00
   1.1333262246434563e+01   2.8885952235051247e+00   4.6821031313885522e+00
   1.1298909412544115e+01   2.9085188176164527e+00   4.6821055888853929e+00
   1.1322683907946429e+01   2.8936464811523486e+00   4.7072262239077247e+00
   1.1280745411447109e+01   2.9389944567209834e+00   4.6569848665936053e+00
   1.1295121259014131e+01   2.9135268746550294e+00   4.7122498052515480e+00
   1.1298249361522652e+01   2.9135568630850037e+00   4.6821038191690381e+00
   1.1262916236260748e+01   2.9440174390998153e+00   4.7022021884469813e+00
   1.1287274380536074e+01   2.9237827745841463e+00   4.6871295326174387e+00
   1.1269803809460749e+01   2.9439840311611047e+00   4.6770827171766065e+00
   1.1283806815903576e+01   2.9237515139629529e+00   4.6971766834007678e+00
   1.1230156849373611e+01   3.0194032972792209e+00   4.6670338159604832e+00
   1.0502428885484061e+01   3.0143551678323952e+00   4.6620093205843034e+00
   1.0517505437526571e+01   2.9841020875147377e+00   4.6620089617074107e+00
   1.0580963428470113e+01   2.9589284759604020e+00   4.6569797582346819e+00
   1.0473809929162407e+01   2.9890665487452601e+00   4.6670347259273468e+00
   1.0602768519651883e+01   2.9640346507484927e+00   4.6670335755874381e+00
   1.0486642130085398e+01   3.0444023106176732e+00   4.6720566553039253e+00
   1.0483432896864748e+01   2.9990943793553049e+00   4.6670268284914904e+00
   1.0504087188400618e+01   3.0896628307937610e+00   4.6519581910240513e+00
   1.0296941596759739e+01   3.0643770162463917e+00   4.6569784570937713e+00
   1.0533533781274972e+01   3.0845430828370777e+00   4.6569824494682344e+00
   1.0588067081963590e+01   3.1332417314947092e+00   4.6546987748954995e+00
   1.0561283612406733e+01   3.1132172156957250e+00   4.6647581046382713e+00
   1.0513210664180757e+01   3.0494490693598175e+00   4.6720569675707972e+00
   1.0504056749055623e+01   3.1248102166528526e+00   4.6720508606053617e+00
   1.0027005506451713e+01   3.1348457642128413e+00   4.6670292815331234e+00
   1.0487734510560944e+01   3.1149239940424556e+00   4.6670279799281529e+00
   1.0545822310810571e+01   3.0643788918683312e+00   4.6670289307814530e+00
   1.0568336808317854e+01   3.1248132562381539e+00   4.7122547113856976e+00
   1.0547991916119864e+01   3.1248109140524778e+00   4.6770771973794805e+00
   1.1265912531368508e+01   2.9741256266373539e+00   4.6670287644711905e+00
   1.1231471660781191e+01   2.9990656670912270e+00   4.6921543650944155e+00
   1.1240003110167319e+01   2.9841041772395123e+00   4.6720576848610129e+00
   1.1259666224409674e+01   3.0041452056731348e+00   4.6871299508252235e+00
   1.1244124929814770e+01   2.9691413537399542e+00   4.7022014395887730e+00
   1.1228509447962317e+01   3.0343343368840046e+00   4.6921516985537730e+00
   1.1226239892467069e+01   3.0293382669426552e+00   4.6821025282943323e+00
   1.1238931029786817e+01   3.0494511279804954e+00   4.6770807784134458e+00
   1.1228845977445811e+01   3.0092269726234044e+00   4.6921523051496656e+00
   1.1279868730309277e+01   3.1097582485076951e+00   4.6670307913249491e+00
   1.1286041886278600e+01   3.0845741026482938e+00   4.6620067884537750e+00
   1.1250975619850262e+01   3.0593002594867302e+00   4.6670336304578353e+00
   1.1257342297185824e+01   3.0795190446914438e+00   4.6670321778119792e+00
   1.1247620250040494e+01   3.0845469020943810e+00   4.7122492174863897e+00
   1.1256273438795851e+01   3.0593024165723457e+00   4.6720590208072998e+00
   1.1250029053235242e+01   3.0845762690788554e+00   4.6871300042014568e+00
   1.1236235462167121e+01   3.0643795108727145e+00   4.6971801866117389e+00
   1.1280031492697393e+01   3.1199063437608858e+00   4.6921521946620421e+00
   1.1264153902469639e+01   3.0996121675309976e+00   4.6821042251881977e+00
   1.1285784051354652e+01   3.1182063334841867e+00   4.6848729315391466e+00
   1.1298428903980279e+01   3.1332671714892397e+00   4.6899021892365624e+00
   1.1259520206446011e+01   3.0996461249275464e+00   4.7072243501474516e+00
   1.1275522429168859e+01   3.1148976270318598e+00   4.7022000965899622e+00
   4.9116394577625497e+00   6.8509558575691565e-01   1.9755550857765667e+00
   4.6542756579788014e+00   6.9017498692437718e-01   1.9906486645393486e+00
   4.6232711412609149e+00   7.7555971862777651e-01   2.0007128639640861e+00
   2.1089698655163378e+00   1.4098410684215770e+00   2.6599404856348507e+00
   2.0557728752063054e+00   9.8747958139330283e-01   2.6901335029517761e+00
   2.1318788720978032e+00   1.2435870147285759e+00   2.6397995253599387e+00
   1.9391693103063488e+00   7.4124551234801776e-03   2.6901349502178196e+00
   2.0335162387689460e+00   5.7540443377274431e-01   2.6901411413812180e+00
   2.0353767262875442e+00   1.6825588300864419e-01   2.6297410340042950e+00
   2.0915155294745005e+00   3.6915713585545162e-01   2.6146370942676480e+00
   2.3407097209658443e+00   7.8605502510566194e-01   2.4938485731848004e+00
   2.0516109633643995e+00   7.0102292263031363e-01   2.6800676457863317e+00
   2.1989067328763627e+00   9.4206447366240909e-01   2.5844355326183663e+00
   2.1940568194342642e+00   6.7059917595689722e-01   2.5643174101996076e+00
   2.7227281020691363e+00   1.3439332838006430e+00   2.3579649085283760e+00
   2.3437089799153816e+00   1.3187258759802445e+00   2.5190137384535500e+00
   2.1829566354497287e+00   1.5201221238753744e+00   2.6247074863442221e+00
   2.3017778954069397e+00   1.4094906580948079e+00   2.5492160780340747e+00
   2.2089352397607764e+00   1.2183625220416829e+00   2.5894747983353947e+00
   2.5276175958675000e+00   1.3136144698296170e+00   2.4334508195704081e+00
   2.4909947614969004e+00   1.4393683903759369e+00   2.4535893912262958e+00
   2.6145535881668214e+00   1.5397726977991486e+00   2.3982263349814485e+00
   2.2701566459665292e+00   1.0073797986381705e+00   2.5492070032906002e+00
   2.3310553888640229e+00   1.1881867154704577e+00   2.5190104208147464e+00
   2.3402612223845867e+00   9.6684775765586417e-01   2.4988732197709225e+00
   2.5168820817984301e+00   9.4678963985411746e-01   2.4233904980841370e+00
   2.7812653183551186e+00   1.1828774289212833e+00   2.3277672302371406e+00
   2.5447731679334407e+00   1.2381419167371535e+00   2.4233870890877731e+00
   2.7548559372807504e+00   1.2080551491842157e+00   2.3327972437265792e+00
   2.6280368907812157e+00   1.0071101289667295e+00   2.3831256259890439e+00
   2.5199771757262011e+00   5.9490798028894465e-01   2.3881622735824708e+00
   2.2896940750357895e+00   3.7204761495730307e-02   2.4384821660597531e+00
   2.0757464973849769e+00   7.7586515374759205e-02   2.5945086314498611e+00
   2.1699703711067118e+00   4.2927986556804626e-01   2.5693462006473720e+00
   2.2789906452100674e+00   7.7305485636837576e-02   2.4686929375332483e+00
   2.3544158310663814e+00   2.2303830733573513e-01   2.4485490123007443e+00
   2.0135150091990872e+00   4.7580449810176902e-02   2.6196678611538839e+00
   2.2803960313989324e+00   3.7910201160679236e-01   2.4837806640306210e+00
   2.2180647262345614e+00   6.0510690023822677e-01   2.5492094510044212e+00
   2.2522800546757056e+00   6.4523678818654762e-01   2.5341099564990661e+00
   2.6345474832314184e+00   2.2798219614893664e-01   2.3328068953694769e+00
   2.4328291139695777e+00   1.4252588199639327e-01   2.3982236385405722e+00
   2.4951622261105588e+00   2.0781993900962820e-01   2.3780990460638667e+00
   2.5081778753535406e+00   2.3296243868839783e-02   2.3652141280004511e+00
   2.6807254426919589e+00   3.9372710515589626e-01   2.3227423780339569e+00
   2.4556582959176141e+00   3.2862623981480532e-01   2.4082916460483563e+00
   2.6056708691239194e+00   5.7959913147934039e-01   2.3680394665788578e+00
   2.6272141010359245e+00   2.8306813218698385e-01   2.3277758523950238e+00
   2.5159884300222846e+00   8.3598983704505503e-01   2.3277736046447499e+00
   2.3905276646817959e+00   7.7586815144649068e-01   2.4686903049501372e+00
   2.4876245882498029e+00   8.8630350811210545e-01   2.4334585822548429e+00
   2.5362992336699941e+00   6.9533478684203121e-01   2.4032675428871508e+00
   2.7625298173214348e+00   7.8072497910488947e-01   2.3177025952386252e+00
   3.0891072609697452e+00   9.4660911434011819e-01   2.2321658145607777e+00
   2.7627631463927558e+00   1.0167886012373371e+00   2.3277726384367372e+00
   2.8453922462493639e+00   1.0167486488050252e+00   2.3026118322010927e+00
   2.8536269355125943e+00   9.2637657611749868e-01   2.2925470828293659e+00
   2.9226494355233572e+00   6.4490741161853982e-01   2.2673903721411355e+00
   2.8303689583227483e+00   6.0995683171105064e-01   2.2925402783060327e+00
   2.8201205902258861e+00   6.9520411497285917e-01   2.2925530531195424e+00
   2.8767629206105951e+00   5.2950876484540643e-01   2.2774562619660381e+00
   3.3920602215358735e+00   7.8571351639345233e-01   2.1667458762925009e+00
   2.9902150652481505e+00   8.2602728006236814e-01   2.2472607349770133e+00
   3.1180288627543202e+00   9.1128490605999313e-01   2.2220959392744284e+00
   3.0253319125441429e+00   7.3046235690112504e-01   2.2371930410000229e+00
   3.7974715737444305e+00   1.1677111573393393e+00   2.1113933364617119e+00
   3.4578497613713641e+00   1.4191944017668985e+00   2.1717767781656616e+00
   3.1030318396511820e+00   1.4091195880084635e+00   2.2472566830982230e+00
   2.9210597062999240e+00   1.4691474397887792e+00   2.2975841313099532e+00
   3.1460321683908443e+00   1.4992775039968613e+00   2.2422274757696847e+00
   2.8308852689492738e+00   1.3991929803049135e+00   2.3177070386338947e+00
   3.2903067642528407e+00   1.4141271656059404e+00   2.2019654666090469e+00
   3.3485730520836783e+00   1.4844371709661968e+00   2.1919031688666348e+00
   3.5509821171164742e+00   1.4944281994470880e+00   2.1516516423178924e+00
   3.2507582569242213e+00   1.2582445007738294e+00   2.2120345153855472e+00
   2.9648249528943524e+00   1.3337598275919509e+00   2.2774480895583848e+00
   3.0730843221945605e+00   1.3034821768365845e+00   2.2522887309707986e+00
   2.9572672224770287e+00   1.1980398651313959e+00   2.2824764948164726e+00
   3.5872155015768148e+00   1.2882383678249258e+00   2.1466171798149953e+00
   3.2974251399162950e+00   1.2982772848352300e+00   2.1969349548956538e+00
   3.6395755768079607e+00   1.3587751018424510e+00   2.1415844656163898e+00
   3.3451086533656871e+00   1.2128621883374855e+00   2.1868761103252576e+00
   4.3336648846824790e+00   1.4540754127021820e+00   2.0359300214278306e+00
   3.9886133928444356e+00   1.4844094232979002e+00   2.0862425912131304e+00
   3.7133144124430135e+00   1.5345734576380197e+00   2.1264941601352101e+00
   3.8355336812013530e+00   1.5698080613284786e+00   2.1113943746051484e+00
   3.7764414058806741e+00   1.4591380670807741e+00   2.1164307761952870e+00
   4.2301276855313716e+00   1.4391471798284745e+00   2.0510239793521543e+00
   4.0325490304832003e+00   1.5646946702217501e+00   2.0812078995965058e+00
   4.4061622884988019e+00   1.5294919874990962e+00   2.0359259199177178e+00
   4.0612979983965722e+00   1.3537177938984208e+00   2.0761750047690262e+00
   3.7209925621589193e+00   1.3991014806534374e+00   2.1264870416286996e+00
   4.0339300227106074e+00   1.3940567753747017e+00   2.0812068583452286e+00
   3.8139936722166961e+00   1.2832767405631440e+00   2.1113966805949689e+00
   4.3331259393214037e+00   1.3587312678204209e+00   2.0359294378137998e+00
   4.0822720927261820e+00   1.4040668835762495e+00   2.0711434616083220e+00
   4.3073692547138327e+00   1.4242432608700382e+00   2.0459872854760781e+00
   4.1535850236595611e+00   1.3033733392644844e+00   2.0610804965797769e+00
   3.4931630899886423e+00   1.0371612092088314e+00   2.1566826586185206e+00
   3.3151739377942149e+00   1.0018568789533917e+00   2.1868737004947119e+00
   3.0858102194832076e+00   1.0320794695505520e+00   2.2422227170355016e+00
   3.2815001883871653e+00   1.1575703464757501e+00   2.2019687369372316e+00
   3.2317953668391506e+00   9.7677824720196060e-01   2.2069970369352649e+00
   3.7499479691762390e+00   1.1827629634329013e+00   2.1164261115566791e+00
   3.5632906305687446e+00   1.1426470291192909e+00   2.1516482304694873e+00
   3.6133008565037867e+00   9.5151716842534517e-01   2.1315214753853287e+00
   3.2178444173592360e+00   8.8610725233463228e-01   2.2070039408466426e+00
   3.5557277756779975e+00   9.5640166702193163e-01   2.1415893393888292e+00
   3.4950323719012961e+00   8.3096532112572485e-01   2.1466154321476405e+00
   3.9296701489552532e+00   9.9667838061649272e-01   2.0812073392766473e+00
   3.7552197132346330e+00   1.0069509602089266e+00   2.1113982542188312e+00
   3.8339909863678607e+00   1.0166303784891504e+00   2.0963024401452435e+00
   3.7390628905721819e+00   9.9154202723135210e-01   2.1113933082830516e+00
   4.4201003542550925e+00   1.2428984345291312e+00   2.0258634422439923e+00
   4.0233253331398648e+00   1.1979775008416524e+00   2.0761699033745966e+00
   3.8083450293171968e+00   1.2128473127905337e+00   2.1063600043623714e+00
   4.1457731112400493e+00   1.2481302184965233e+00   2.0610849934364150e+00
   3.8629224581794284e+00   1.1626621219433961e+00   2.0963061811641852e+00
   4.3622159062129189e+00   1.1979812446986660e+00   2.0359250607125361e+00
   4.2041428135017007e+00   1.2832787399465015e+00   2.0560508208005155e+00
   4.5698063049956508e+00   1.2781909749630895e+00   2.0107731434455109e+00
   4.2229934954643253e+00   1.0166520211170775e+00   2.0459869143943452e+00
   4.2230202227426048e+00   1.1575201998553604e+00   2.0459916471375035e+00
   4.6066931445778980e+00   1.1224656325885838e+00   2.0107671964162352e+00
   4.4335641184718417e+00   1.1374950739096301e+00   2.0258640377053969e+00
   4.5283022005421634e+00   1.1676986919346939e+00   2.0158016196416337e+00
   4.5545174796745487e+00   1.1224655352720192e+00   2.0158031524459532e+00
   2.9036496387665296e+00   3.1846155401008519e-01   2.1667472721558210e+00
   2.8074497753628647e+00   4.6993483739001023e-02   2.2573281403729109e+00
   2.9196371358506177e+00   2.0271542951339394e-01   2.2371921836943178e+00
   2.9451591328439282e+00   1.0706684462052964e-01   2.2321669657767305e+00
   2.9655490663521316e+00   1.4233232311436878e-01   2.2271386913535678e+00
   2.8579108540262412e+00   2.9831017305777141e-01   2.2673916734054718e+00
   3.0617203977847161e+00   4.1889071846793280e-01   2.2120272618865799e+00
   2.9735697445168490e+00   2.3304701619589877e-01   2.2271206911252972e+00
   3.0369777100178061e+00   3.2849531458549275e-01   2.2220967134716672e+00
   2.9234614618814456e+00   2.9826959634506206e-01   2.2070087999617298e+00
   3.3041278059000687e+00   9.7140412731833811e-02   2.1466185841252092e+00
   3.1826191334823588e+00   1.4233571788663668e-01   2.1768040214149682e+00
   3.4174521803707800e+00   7.7036171706492032e-02   2.1264876348776962e+00
   3.2270347584074766e+00   3.2842780076266254e-01   2.0560528944063790e+00
   3.2616288501840609e+00   2.6810882304502964e-01   2.1617230471502848e+00
   3.3994240316406543e+00   3.1845928571817256e-01   2.1566872121818297e+00
   3.4382895805494629e+00   2.0263487325391868e-01   2.1264854545401546e+00
   3.4368364112477043e+00   3.2842174556409875e-01   2.1315221179945052e+00
   3.4961345049445680e+00   6.5504393134010908e-01   2.1365565665146393e+00
   3.0664673011054591e+00   4.4385500192665461e-01   2.2220990865513497e+00
   3.1160932672668831e+00   5.5443361605165387e-01   2.2170621932278314e+00
   3.1796295443949130e+00   4.9411914558852282e-01   2.2019780943685952e+00
   3.4411515403958886e+00   5.4433434158761806e-01   2.1415946869600515e+00
   3.3733962389692675e+00   5.7948924135698587e-01   2.1516535317292371e+00
   3.2320362309177475e+00   6.9019880582808513e-01   2.1919058052722900e+00
   3.4493497193542146e+00   7.3556869888113308e-01   2.1516456353878350e+00
   3.2856825877964844e+00   3.9360355586008838e-01   2.1667522088819888e+00
   3.5738894397015137e+00   4.6902860692097487e-01   2.1164253666055748e+00
   3.7020124336136417e+00   3.9357805290696185e-01   2.0862445335807935e+00
   3.7517514177634421e+00   4.4902000069974313e-01   2.0862406790514232e+00
   3.8717988934195691e+00   6.1490028435573074e-01   2.0812109466263111e+00
   3.5531356865312649e+00   5.5952390079841274e-01   2.1214561713513289e+00
   3.6940021322269154e+00   5.9473933454845784e-01   2.1063606776011676e+00
   3.8856897399753882e+00   5.0411543964085470e-01   2.0711456559789254e+00
   3.8803722353294923e+00   2.3301855884717959e-01   2.0610856113756144e+00
   3.7664857096171227e+00   8.7154960481078195e-02   2.0610880232333786e+00
   3.5143154149361719e+00   8.2099493238552340e-02   2.0963009716908680e+00
   3.5521679919691298e+00   8.2130172418879321e-02   2.0912808095578632e+00
   3.9267439474684367e+00   1.9766530025170201e-01   2.0510212658757911e+00
   3.6977334835935647e+00   1.9264818319638313e-01   2.0862362038937032e+00
   3.6692615062937390e+00   3.1842505149973094e-01   2.0912702340401528e+00
   4.3253070514391236e+00   6.6963987053917776e-02   1.9856168946691994e+00
   4.1034632003139739e+00   6.6967298001126496e-02   2.0158057572984331e+00
   4.0171420538499758e+00   8.2100841316957232e-02   2.0308978386292931e+00
   4.1706246109114158e+00   6.1904928019087993e-02   2.0107746975508665e+00
   4.3298466086328045e+00   9.2154671786085787e-02   1.9906440088495407e+00
   4.3996197735861227e+00   1.9265340587042057e-01   1.9956786557620414e+00
   4.0158955488057702e+00   1.6239151488336981e-01   2.0359261174714267e+00
   4.3490869302313326e+00   1.8765187337200814e-01   2.0007104838715835e+00
   4.3781862240936027e+00   4.8903960147690195e-01   2.0158049908228644e+00
   4.0172826779197406e+00   3.8373711095816876e-01   2.0459861668709518e+00
   3.8517160714302401e+00   3.1324126395001406e-01   2.0661232447002207e+00
   3.9333390405333737e+00   3.8868452736644693e-01   2.0610922200080690e+00
   3.8963081525712258e+00   3.1839839249212931e-01   2.0610867976350704e+00
   4.2589594108750317e+00   4.5398478745345172e-01   2.0258616350194276e+00
   4.0282650505315560e+00   4.4383318566287489e-01   2.0510225015033097e+00
   4.0201334691864403e+00   5.4937351043481775e-01   2.0661133378823160e+00
   4.4216906617090475e+00   3.7874317838218791e-01   2.0007060775264325e+00
   4.6481399822893676e+00   4.2879033600095134e-01   1.9856136094127628e+00
   4.3333632247894940e+00   4.4899034434340157e-01   2.0157990500791141e+00
   4.5286850144758359e+00   4.3858376379338893e-01   1.9956763667605777e+00
   4.6167415597280295e+00   3.9862946659975174e-01   1.9856184086131072e+00
   4.6635603590916457e+00   7.0011406382557195e-01   1.9956777396195451e+00
   4.0261762078213863e+00   7.9567276981927881e-01   2.0711420143120658e+00
   3.8584657624550722e+00   8.1595184917577135e-01   2.0912688480799448e+00
   3.6175340178540134e+00   7.7558158596662097e-01   2.1264911116056995e+00
   3.6557050604479842e+00   8.1596414441232434e-01   2.1214595774688738e+00
   3.6493315481160384e+00   7.6083193967416141e-01   2.1214624575157863e+00
   4.1473822336646284e+00   9.4654830137210122e-01   2.0560551917676588e+00
   4.2544868587983666e+00   7.1532266898905972e-01   2.0359280999463847e+00
   3.9060329615530640e+00   6.6004659673514510e-01   2.0812107472419155e+00
   4.0091256683097374e+00   7.4040449876458958e-01   2.0610800810409620e+00
   4.0979551390280005e+00   6.3495888407950085e-01   2.0510226633660138e+00
   4.5758324541725743e+00   7.9070225490094470e-01   2.0057364698122813e+00
   4.0962378310007832e+00   7.6573154338327287e-01   2.0560526140158859e+00
   4.2843713223601432e+00   8.2099892102399497e-01   2.0359261688451813e+00
   4.4545701582308705e+00   7.5048412113356477e-01   2.0158015925045651e+00
   5.0361812931002596e+00   1.0118626407602442e+00   1.9705233372217990e+00
   4.5834442603566155e+00   9.8651966384597434e-01   2.0107708146481844e+00
   4.2311793167807243e+00   9.9666210017301360e-01   2.0459890199354325e+00
   4.4773382550169254e+00   1.0118764771525726e+00   2.0208358088320000e+00
   4.4421628639160682e+00   9.4654690492543203e-01   2.0208311419955214e+00
   4.6317918365897013e+00   9.9153787902475599e-01   2.0057391294305948e+00
   4.6417287638236688e+00   1.0118630645766635e+00   2.0057377019522273e+00
   4.8346714288739419e+00   8.3092384793122176e-01   1.9805816020254765e+00
   4.7172110535759373e+00   9.3643047901557130e-01   1.9956727370925456e+00
   4.7048639797666842e+00   7.9566296151927141e-01   1.9956782344925870e+00
   5.2170273722032547e+00   9.4655594496094053e-01   1.9554308424230009e+00
   4.9722244409807166e+00   9.5637236344756782e-01   1.9755565766408345e+00
   5.0953467888976895e+00   9.5635524926286553e-01   1.9654930984658783e+00
   5.0231710627923070e+00   9.3125967157214506e-01   1.9705227214771648e+00
   4.5456390791289181e+00   5.7945952054608574e-01   2.0007149574795431e+00
   4.3680952959818766e+00   5.8977046433945346e-01   2.0158074760515738e+00
   4.1623961421348401e+00   5.9956852407775918e-01   2.0459906346535011e+00
   4.3555082769413955e+00   6.0986470686745797e-01   2.0157963622726629e+00
   4.9604045056525381e+00   5.2441945308368554e-01   1.9604684603473936e+00
   4.5656560010571319e+00   5.1428061068630859e-01   2.0007045989676486e+00
   4.6315522313813977e+00   5.7945999605537191e-01   1.9906523651215364e+00
   4.6866756963534399e+00   4.8904053306235762e-01   1.9856213572264392e+00
   5.1035212351220798e+00   6.4481260510292138e-01   1.9554346085241177e+00
   4.9827562741331226e+00   6.2467131327021597e-01   1.9654907588064390e+00
   5.0771703619406940e+00   6.7013830631920701e-01   1.9604651356557503e+00
   4.9561407691356987e+00   5.9953508999390226e-01   1.9654932412116246e+00
   5.4933808086871236e+00   8.3091593905782002e-01   1.9302718915018118e+00
   5.1059227149229356e+00   7.9566445294210975e-01   1.9604656642338922e+00
   4.9528638670415726e+00   7.9070967708271511e-01   1.9705199143437571e+00
   4.8328695978843665e+00   8.2596582291774912e-01   1.9805851826116774e+00
   5.0440649886812521e+00   7.7059501197898372e-01   1.9654940226165392e+00
   5.4195456599191045e+00   8.3092926712449389e-01   1.9353063011935687e+00
   5.1354925601543808e+00   8.3094522029324402e-01   1.9554275911960965e+00
   5.4974778708808829e+00   6.9014109418065106e-01   1.9302765011566896e+00
   5.1066261199857772e+00   7.1529020662819998e-01   1.9554269974928378e+00
   5.3041326458833957e+00   7.4038742548834313e-01   1.9453710633042229e+00
   5.4456430345938944e+00   6.7013854084029367e-01   1.9302796118512471e+00
   5.7879236461935122e+00   7.7556091560898754e-01   1.9101520737600652e+00
   5.5144380178637427e+00   7.9566546654559422e-01   1.9302793352006966e+00
   5.6481383495545678e+00   8.1087634039207779e-01   1.9202131948709655e+00
   5.5209200532480089e+00   7.5045866941964978e-01   1.9302750168350951e+00
   7.9196023304670415e+00   1.1322998115679737e+00   1.8246353726672144e+00
   8.1116664567843895e+00   1.5294704310849978e+00   1.8246414230378398e+00
   7.9040045010869653e+00   1.5244300795572798e+00   1.8296660378802887e+00
   7.6787714343004767e+00   1.5244306366340212e+00   1.8347027487733281e+00
   7.4057319035742175e+00   1.5597075912902201e+00   1.8447599502216698e+00
   7.5564721026147517e+00   1.5597052846697521e+00   1.8397279726097131e+00
   8.1801672582109219e+00   1.5646818355510865e+00   1.8196084008711622e+00
   7.9955001295670050e+00   1.5698163901041478e+00   1.8246411104194722e+00
   7.6769401117450426e+00   1.1476043289561844e+00   1.8346973120081425e+00
   7.8385442888111569e+00   1.1726064434320407e+00   1.8296664383602936e+00
   7.5676351789009360e+00   1.1476050808957305e+00   1.8397271436695830e+00
   7.4038382471129793e+00   1.1776174933557360e+00   1.8447591543904145e+00
   8.5164943478869297e+00   1.2781672452211357e+00   1.8095465681731595e+00
   8.0912471893441111e+00   1.2581727394757030e+00   1.8246375725725108e+00
   7.8300714961566609e+00   1.2731055496657140e+00   1.8296666943026898e+00
   7.9802229300305889e+00   1.3033636624988101e+00   1.8246400130130167e+00
   8.2957888738434633e+00   1.2681262253534078e+00   1.8145788186870111e+00
   8.1999909056432490e+00   1.2882213933871114e+00   1.8196123482308351e+00
   8.2958512251455545e+00   1.2982209583488151e+00   1.8145769492463850e+00
   8.1352926691669172e+00   1.1928691085585541e+00   1.8196088438386624e+00
   7.8214424563735045e+00   1.2330430797269512e+00   1.8296682730808640e+00
   7.9643141343657460e+00   1.2378891930007638e+00   1.8246356178517313e+00
   8.0236831008870855e+00   1.1776353911495365e+00   1.8246374388132875e+00
   8.6671661693236839e+00   1.2378733441847063e+00   1.8045176137546060e+00
   8.3676169873979056e+00   1.2330424960710176e+00   1.8145783863618794e+00
   8.4776662391765587e+00   1.2378733660670638e+00   1.8095462526902868e+00
   8.4664480137914975e+00   1.2229230316809627e+00   1.8095460068796603e+00
   7.5416715761638669e+00   1.1224451775083910e+00   1.8397273569913151e+00
   8.1353826790608927e+00   1.0921438646715682e+00   1.8196060327267118e+00
   8.7280918002551395e+00   1.1776189293695181e+00   1.8045162794693104e+00
   8.1484386358272349e+00   1.1725971263370747e+00   1.8196085606361576e+00
   8.1434900950413773e+00   1.1575192449486589e+00   1.8196082556378910e+00
   8.4948627305842326e+00   1.1476152971615492e+00   1.8095451904968283e+00
   8.5015158682961349e+00   1.1725908136706702e+00   1.8095468391318179e+00
   8.7213409024227477e+00   1.1979650584345727e+00   1.8045171627523755e+00
   8.6577219487411359e+00   1.0972549694500846e+00   1.8045164589914553e+00
   8.2995845132760095e+00   1.0972619484143338e+00   1.8145749483453661e+00
   8.4685593376721986e+00   1.1224544311653497e+00   1.8095446332531906e+00
   8.3242214928785376e+00   1.0671672581791773e+00   1.8145791995586751e+00
   9.0235240477218195e+00   1.1174460121216006e+00   1.7944565455348720e+00
   8.6422625392611749e+00   1.1224452246978660e+00   1.8045175734936918e+00
   8.8420824638500175e+00   1.1224447518370377e+00   1.7994881575163204e+00
   8.8682713849635881e+00   1.0972452574605305e+00   1.7994861750956042e+00
   4.9107198079232743e+00   1.4791510189723436e+00   1.9755542340492680e+00
   4.4778242726525121e+00   1.5596994458996247e+00   2.0258681744029916e+00
   4.8133340614179270e+00   1.5647036441004996e+00   1.9906447329966090e+00
   4.6599647983007344e+00   1.4690507381753648e+00   2.0057391488965197e+00
   4.9719455260218810e+00   1.5698002576902839e+00   1.9705177550274919e+00
   5.3128203601424353e+00   1.5345461680807171e+00   1.9403385241445377e+00
   4.9339715370351493e+00   1.3788932876728719e+00   1.9755539157643147e+00
   4.5390496780144414e+00   1.3890031727615912e+00   2.0158044539926969e+00
   4.8947248229862721e+00   1.4490394435981582e+00   1.9805885034495079e+00
   4.5240639088937495e+00   1.3839318270130982e+00   2.0157997649122299e+00
   5.2291671638597474e+00   1.3688054047260165e+00   1.9403390529461970e+00
   5.1139043629362098e+00   1.3788929437445900e+00   1.9554303898868974e+00
   5.3865727722203847e+00   1.5596868651314140e+00   1.9403392152913108e+00
   6.0542597469263733e+00   1.5597217180746936e+00   1.8950629169732720e+00
   6.0940032005151590e+00   1.5597226768883998e+00   1.8900327415180964e+00
   5.2808193557421568e+00   1.3133511614528206e+00   1.9453679688215981e+00
   4.9819943649578731e+00   1.2428990250151528e+00   1.9705235024300831e+00
   4.6849522606227261e+00   1.3234426103919088e+00   2.0007099573454812e+00
   5.0070010994760130e+00   1.3133522922362284e+00   1.9705241969121861e+00
   4.8506415464460986e+00   1.2581609689720501e+00   1.9856116427833299e+00
   5.1106096796324607e+00   1.2982234562716957e+00   1.9604636555246242e+00
   5.1770199473852720e+00   1.3133710534843535e+00   1.9554301341566322e+00
   5.3689719765454171e+00   1.3437822437774574e+00   1.9302784492626566e+00
   5.0855426506985468e+00   1.1676885549684610e+00   1.9654901095689690e+00
   4.9512240944951174e+00   1.2029755491708993e+00   1.9755497438104521e+00
   5.0272678726142095e+00   1.2079282690147293e+00   1.9654918636253595e+00
   4.8923911430707383e+00   1.1574888583495702e+00   1.9805846663654318e+00
   5.5847996793031882e+00   1.2280374671665124e+00   1.9252457245121315e+00
   5.3055773015920709e+00   1.2177810942504763e+00   1.9453689234478626e+00
   5.5068477099601179e+00   1.2581668985347976e+00   1.9302764635269871e+00
   5.2288568869893544e+00   1.1928494319206429e+00   1.9503960067956883e+00
   5.5697386474606692e+00   1.3336778356791279e+00   1.9151879649961072e+00
   5.5447667383122621e+00   1.3133352957382016e+00   1.9252415697141554e+00
   5.7202943080066255e+00   1.2531985407881687e+00   1.9151843955333618e+00
   6.0001947948163314e+00   1.2832788087424598e+00   1.8900311590340284e+00
   5.7534547715765534e+00   1.2280204455183505e+00   1.9151851968694749e+00
   6.1153592065200888e+00   1.2229147808883252e+00   1.8950635856533211e+00
   6.3788876234519920e+00   1.2832599106315798e+00   1.8749397680552478e+00
   6.2148250472512903e+00   1.2378710250852036e+00   1.8850020245105827e+00
   6.4133050671324687e+00   1.2378856718926707e+00   1.8749361400360396e+00
   7.3564783511930489e+00   1.2882198968234855e+00   1.8447584700021746e+00
   7.0750801802226944e+00   1.5294697705746325e+00   1.8548256518819981e+00
   6.6524318835391316e+00   1.5294681393658813e+00   1.8699174891399479e+00
   6.3166510233672080e+00   1.5597039529149963e+00   1.8850009502244898e+00
   6.7809981379753390e+00   1.5395983362701653e+00   1.8648847212287494e+00
   6.5050817004496571e+00   1.5294692844132596e+00   1.8749428128611401e+00
   6.9102108586011326e+00   1.5244264728002128e+00   1.8598528646377230e+00
   6.8698967041138248e+00   1.5496592471777508e+00   1.8598508099885827e+00
   7.2180717999926403e+00   1.5395984504769538e+00   1.8497907135231653e+00
   7.6536200932924547e+00   1.5294709133368682e+00   1.8346986642017438e+00
   7.2894557222291292e+00   1.5496577686600042e+00   1.8447593012857655e+00
   7.6376835912083969e+00   1.5446620371157678e+00   1.8346994824038023e+00
   7.1432204095344138e+00   1.2781657479737520e+00   1.8497882749053158e+00
   6.8383234674107811e+00   1.2681193662823278e+00   1.8598503258693135e+00
   6.6667823885348172e+00   1.2931172112067775e+00   1.8648793038566325e+00
   6.7814176318662902e+00   1.2982350133338241e+00   1.8648801609210373e+00
   6.5497109616600637e+00   1.2832931397966059e+00   1.8699072402457344e+00
   7.7803967291691496e+00   1.3033649087322274e+00   1.8296653886712329e+00
   7.5881915582108235e+00   1.3033634218886587e+00   1.8346996222241754e+00
   6.1853496977141882e+00   9.6135628901165315e-01   1.8950596674233049e+00
   5.7863600875365506e+00   1.1023037863475766e+00   1.9151849137642647e+00
   5.4062663630679539e+00   1.1023258967218363e+00   1.9403385978615044e+00
   5.0708691273440500e+00   1.1273274635057571e+00   1.9654893286221715e+00
   5.2673835640011069e+00   1.1123193266367180e+00   1.9503972313072149e+00
   5.1290299025079786e+00   1.0166427030601957e+00   1.9604616559145771e+00
   5.4005626863313978e+00   1.1073207301478007e+00   1.9403356398024691e+00
   5.4281241070680206e+00   1.1224332430285919e+00   1.9403344947168297e+00
   5.5982464879793392e+00   1.1676897500717751e+00   1.9252460981626032e+00
   5.6429174752834195e+00   9.7674251029946235e-01   1.9252458797651717e+00
   5.3292647947447689e+00   1.0166213890318361e+00   1.9453689926715443e+00
   5.5128738227110725e+00   1.0519945987860100e+00   1.9353050008957340e+00
   5.3532152183735340e+00   9.3641798116783637e-01   1.9453682183221490e+00
   5.9926625633533712e+00   1.0620866242993670e+00   1.9051218455439194e+00
   5.8088480415660726e+00   1.0469160267279913e+00   1.9151861188894423e+00
   5.8109932492342482e+00   1.0921611002278517e+00   1.9151820474167829e+00
   5.8141352424354560e+00   1.0018371432345790e+00   1.9151833639175053e+00
   6.7561811717456175e+00   1.1776285190257925e+00   1.8648787875396500e+00
   5.7673519478681028e+00   1.1878092147725003e+00   1.9151809628177432e+00
