   1.3399066121703184e+01   9.2680429418189825e-01   4.7886539456516948e+00
   1.3452873958725771e+01   9.2521066099524762e-01   4.8232211841842032e+00
   1.3072008307636438e+01   9.0954915327048202e-01   4.7933669360515445e+00
   1.3100790837535763e+01   9.0953665435891251e-01   4.8169350069656556e+00
   1.3708263598957128e+01   9.3934102073318204e-01   4.8420765372653785e+00
   1.3510585213878302e+01   9.2519480625973816e-01   4.8530748848607654e+00
   1.3139510959430645e+01   9.0952245617642657e-01   4.8420746610001490e+00
   1.3168642490085036e+01   9.0951298608940734e-01   4.8593578729573776e+00
   1.2627861535560841e+01   8.8444995190418840e-01   4.7336610110604962e+00
   1.2669018119888413e+01   8.8349559513678000e-01   4.7775712724868180e+00
   1.2689265857882914e+01   8.8441870693817559e-01   4.7918023086885064e+00
   1.4619899505048691e+01   9.7542034121116949e-01   4.8672144862653131e+00
   1.4372725818116409e+01   9.6599604754397450e-01   4.8703614297244684e+00
   1.4610147577949409e+01   9.7542312168598244e-01   4.8625024259388310e+00
   1.4335238900331380e+01   9.6443510891077899e-01   4.8640768792171372e+00
   1.4081799774924582e+01   9.5342870917405143e-01   4.8735040272977628e+00
   1.4158421002574686e+01   9.5659569787321697e-01   4.8687895203529870e+00
   1.3787124566345877e+01   9.4086999547030170e-01   4.8656466721291096e+00
   1.3948414595903364e+01   9.4714877822662502e-01   4.8750739455341812e+00
   1.3748955705508001e+01   9.3932757002628298e-01   4.8640745552814835e+00
   1.8443142406391324e+01   1.0694115331848557e+00   5.1492751264939862e+00
   1.7721408603774194e+01   1.0694722716530234e+00   5.0538509656268733e+00
   1.8273859838878156e+01   1.0931081436450993e+00   4.9756188603705267e+00
   1.8213150422103091e+01   1.0946765515198285e+00   4.9584198964858022e+00
   1.8141143097822944e+01   1.0946927869618572e+00   4.9457705949574589e+00
   1.8238440043725177e+01   1.0931124694871768e+00   4.9677629213387053e+00
   1.7371664064458649e+01   1.0694669801896051e+00   4.9935760268568794e+00
   1.7203667895409076e+01   1.0664343203526097e+00   4.9630472365642788e+00
   1.7140714192526573e+01   1.0664420362043745e+00   4.9489111273825204e+00
   1.7291572444299362e+01   1.0695686994639786e+00   4.9818996102792337e+00
   1.8658399120665472e+01   1.0946216344391799e+00   5.0387814986956334e+00
   1.8751717386598195e+01   1.0996663707618530e+00   5.0086488861596603e+00
   1.8386472359517636e+01   1.0915190270385957e+00   4.9991804781160010e+00
   1.8503566135933934e+01   1.0946502861554757e+00   5.0136689276630948e+00
   1.8158567304000776e+01   1.0845068458881497e+00   5.0186914720267621e+00
   1.8730588846304030e+01   1.0977794596493995e+00   5.0164622772201319e+00
   1.8486796042857751e+01   1.0930818764360795e+00   5.0211714914643881e+00
   1.8199619966482981e+01   1.0852123544417778e+00   5.0258863520684285e+00
   1.8059999810839951e+01   1.0820697927886289e+00   5.0290230404830769e+00
   1.7747416321480966e+01   1.0726702966987240e+00   5.0337391371231508e+00
   1.7802050099158297e+01   1.0745092450917848e+00   5.0237165337714318e+00
   1.7422506510981279e+01   1.0695538336843182e+00   5.0070355518384186e+00
   1.7481550179170124e+01   1.0695473869056029e+00   5.0180294627693733e+00
   1.7111100617174600e+01   1.0544412316140703e+00   5.0387841748535376e+00
   1.7580898659906183e+01   1.0663927426356548e+00   5.0353118390475906e+00
   1.7270584400204037e+01   1.0594232569998596e+00   5.0387867798119093e+00
   1.7182166619933906e+01   1.0553829511503219e+00   5.0447350226590482e+00
   1.8298695333078722e+01   1.0663309711233506e+00   5.1405419881906296e+00
   1.9240656716337959e+01   1.0996237127498798e+00   5.0839869044449006e+00
   1.8800941560817453e+01   1.0946242157275410e+00   5.0651546122765723e+00
   1.8684883068283007e+01   1.0946343131372953e+00   5.0478753872783777e+00
   1.8901477636830013e+01   1.0946158996482787e+00   5.0792928392895869e+00
   1.8864883490183608e+01   1.0946392564595795e+00   5.0689205301516189e+00
   1.8665268103120138e+01   1.0844626518620106e+00   5.0940318048620039e+00
   1.8485997855987272e+01   1.0795002509386813e+00   5.0990547477329438e+00
   1.8305142560045415e+01   1.0744941900158385e+00   5.1040781004572660e+00
   1.7859164824460017e+01   1.0695120954559207e+00   5.0808605617174019e+00
   1.7770205386824571e+01   1.0663718071079895e+00   5.0682933251673630e+00
   1.8068535738722936e+01   1.0694962518667324e+00   5.1091338832294761e+00
   1.7897318602752343e+01   1.0679081312152789e+00   5.0855728343358519e+00
   1.7814625781645034e+01   1.0594051634616533e+00   5.1141187301650675e+00
   1.7649309243789855e+01   1.0544278333929999e+00   5.1191423148340558e+00
   1.9363172106201528e+01   1.0945820834301550e+00   5.1374029674895816e+00
   1.9134875267630122e+01   1.0946273422851143e+00   5.1040776147942566e+00
   1.9259571921711917e+01   1.0996551476635179e+00   5.0890085249499979e+00
   1.8993873298035975e+01   1.0914653388691073e+00   5.0934252891584180e+00
   1.8761323877133005e+01   1.0867916648448936e+00   5.0997061204663305e+00
   1.8482122859235353e+01   1.0795021227237265e+00   5.1040783195978729e+00
   1.9302767002952038e+01   1.0946113687535153e+00   5.1241633236661031e+00
   1.8231113999346611e+01   1.0694442123381831e+00   5.1241645265862541e+00
   1.8411150549539833e+01   1.0773297331828970e+00   5.1075596702688673e+00
   1.8027653387037095e+01   1.0663451943633411e+00   5.1169870272174505e+00
   1.7879453711887230e+01   1.0616483155144971e+00   5.1201245182560999e+00
   1.7799905874099618e+01   1.0585061588387448e+00   5.1216950113789004e+00
   1.3038401167957749e+01   1.0879930576830960e-01   5.0086077226879553e+00
   1.2857109441305887e+01   1.1191986968087130e-01   5.0274545643944499e+00
   1.2700420756800698e+01   1.4341472077419773e-01   4.8515062323271287e+00
   1.3170850089319329e+01   1.3403406081571520e-01   4.7823736243288035e+00
   1.3136756817499895e+01   1.3405777008308314e-01   4.7336594563171541e+00
   1.3134055959358403e+01   1.3406706150510642e-01   4.7148066669723718e+00
   1.3252024694913642e+01   1.1521881590722910e-01   4.7179446883192426e+00
   1.3289822443125754e+01   1.3090081958691438e-01   4.7478043807300869e+00
   1.3190361048546928e+01   1.0443955513284414e-01   4.7172765082113557e+00
   1.3194279191178310e+01   9.4826011496303417e-02   4.7148048782557188e+00
   1.3266746003753331e+01   1.2775375996823837e-01   4.7698027877172766e+00
   1.3152617353180544e+01   1.3404424715631291e-01   4.7619435065854141e+00
   1.3291518873814610e+01   1.3089931595654705e-01   4.7509452181810143e+00
   1.3067851628036491e+01   3.3602590445838833e-02   4.7808029224803024e+00
   1.3120529297654612e+01   6.1831978618562287e-02   4.7163767873922637e+00
   1.3073354965670978e+01   4.9327597630267631e-02   4.7172782574549466e+00
   1.3041859668509318e+01   3.5170946621686114e-02   4.7320892858084989e+00
   1.3043702347168690e+01   3.6719383487876900e-02   4.7258037489343163e+00
   1.3041742645590389e+01   1.1591604363511275e-02   4.7179476986720221e+00
   1.3060258692954209e+01   3.5149133435405919e-02   4.7698033790782306e+00
   1.2510248258195718e+01   1.4502000317823643e-01   4.7886589939436934e+00
   1.3041805036334734e+01   1.3561475959705360e-01   4.7493749625500836e+00
   1.2928991965408517e+01   1.3723187089128652e-01   4.7195209967060885e+00
   1.2737783882324193e+01   1.4034561038843238e-01   4.7163768902998351e+00
   1.2653556873953308e+01   1.4195060172647475e-01   4.7336588332507681e+00
   1.2568708608039014e+01   1.4346885181497612e-01   4.7383709448262987e+00
   1.2470128001580255e+01   1.4505310812130143e-01   4.7273752736395211e+00
   1.2208302812247327e+01   1.4977037110268107e-01   4.7226568451781006e+00
   1.2294069258766603e+01   1.4818282733321711e-01   4.7430862426509108e+00
   1.2970110516682423e+01   1.3720108387279215e-01   4.7792321622561023e+00
   1.3050548674885169e+01   1.3561209108731218e-01   4.7556595905430665e+00
   1.2770670335169802e+01   1.4032300185335125e-01   4.7619433856937636e+00
   1.2888711970008524e+01   1.3873286257644082e-01   4.7886591141670607e+00
   1.2249847984414297e+01   1.4973985455872799e-01   4.7775679287475850e+00
   1.2483810142489471e+01   1.4503866074496635e-01   4.7525188321805407e+00
   1.2240488264835069e+01   1.4977142148087347e-01   4.7675221436461381e+00
   1.3515366411864164e+01   1.2466081394922755e-01   4.8579524199814959e+00
   1.3423585339143376e+01   1.2458390111256766e-01   4.8137996732118058e+00
   1.3161743282661989e+01   1.3472451487579584e-01   4.7926368792442835e+00
   1.3298858758047173e+01   1.2773610949661282e-01   4.8027956209047895e+00
   1.3214713767946886e+01   1.3401831113482979e-01   4.8153664530196485e+00
   1.3415894970551909e+01   1.2457855072656104e-01   4.8232257648858754e+00
   1.3271734710575744e+01   1.3400396227590602e-01   4.8467920982647694e+00
   1.3464787367711715e+01   1.2456968780881736e-01   4.8389361854127948e+00
   1.3213991198531994e+01   1.3472590525415323e-01   4.8278089183119262e+00
   1.3341376200404365e+01   1.3244768632232268e-01   4.8295115333051299e+00
   1.3370399947704856e+01   1.2614094210172958e-01   4.8467915679249129e+00
   1.3165467957054089e+01   3.6648382148929397e-02   4.8499378981838284e+00
   1.3106611094529393e+01   3.6671152360289519e-02   4.8122259003135008e+00
   1.3101369652771652e+01   3.6673597149344483e-02   4.8075125153217968e+00
   1.3114339094947562e+01   6.8816386277030465e-03   4.8122300187269271e+00
   1.3138663255695878e+01   3.6657369478229458e-02   4.8357962349935306e+00
   1.2462978261801030e+01   1.4811668644114756e-01   4.8735003355738593e+00
   1.3012904728929817e+01   1.3718390541072190e-01   4.8122236467964470e+00
   1.3004126227546163e+01   1.3718491750160408e-01   4.8075116806357396e+00
   1.2907081027289207e+01   1.3872500035900787e-01   4.8059395248946482e+00
   1.2892827788973101e+01   1.3967318965258230e-01   4.8127331403680795e+00
   1.2455160957595290e+01   1.4658040430239785e-01   4.8169367949697754e+00
   1.2518078203953234e+01   1.4501648214351429e-01   4.7949428192721957e+00
   1.2349075855462463e+01   1.4814747637573347e-01   4.8090824363310576e+00
   1.2275511732509811e+01   1.4971947363137633e-01   4.8185100720564655e+00
   1.3198487626471184e+01   1.3555559929003327e-01   4.8625019028570193e+00
   1.3054336351476243e+01   1.3717016995033487e-01   4.8373655946201222e+00
   1.2785334322850419e+01   1.4186539503535553e-01   4.8452211620408230e+00
   1.2911529486155001e+01   1.4026760400613028e-01   4.8625024142392776e+00
   1.2500954709574026e+01   1.4656653978243325e-01   4.8452215475657550e+00
   1.2306699989168866e+01   1.4971062911227531e-01   4.8357981919639528e+00
   1.4993110379279278e+01   8.5272120765436749e-02   4.9661918332874295e+00
   1.5860290559016439e+01   7.5863702708332259e-02   4.9520523837054915e+00
   1.6295433647995441e+01   7.1141414958366025e-02   4.9599089739693198e+00
   1.6236829727680369e+01   7.2752904134496643e-02   4.9441989231347607e+00
   1.6267116619005531e+01   6.9552015118238317e-02   4.9567684206115512e+00
   1.5573798996626000e+01   7.7425074396861596e-02   4.9567641287444619e+00
   1.5914602649813975e+01   7.4373895991307198e-02   4.9483755433290657e+00
   1.4724798743767467e+01   8.8424395960752272e-02   4.9709042738069735e+00
   1.5097921495130281e+01   8.2123936591946792e-02   4.9426266173725226e+00
   1.4553141216374595e+01   8.6866861237599152e-02   4.9394828816197833e+00
   1.5471819855315632e+01   7.9003426983835154e-02   4.9583348243272454e+00
   1.5456032399419620e+01   7.9435877158392787e-02   4.9533970628732140e+00
   1.5147971376606110e+01   8.0578605390949160e-02   4.9551948257227627e+00
   1.5223760597993191e+01   8.5267405293375814e-02   4.9771885414354173e+00
   1.5124257791959016e+01   8.3689317392177193e-02   4.9646203098666959e+00
   1.4573432833481444e+01   8.8423429564376016e-02   4.9740484979559607e+00
   1.4953007393737790e+01   8.4546158636751176e-02   4.9634432780031794e+00
   1.4537314727100773e+01   8.9573446077685526e-02   4.9684677462324700e+00
   1.3047030128108426e+01   1.0947397362936327e-01   5.0036237635926977e+00
   1.3441862734876219e+01   9.6311685640596986e-02   4.9049261735889234e+00
   1.3346977807773376e+01   1.3398572494296818e-01   4.8829247836614247e+00
   1.3524995067896956e+01   1.2462857327180264e-01   4.8629696477398312e+00
   1.3414339398761536e+01   1.3242700569571880e-01   4.8672163457101263e+00
   1.3462059188812722e+01   1.3083242796095712e-01   4.8797835308564395e+00
   1.3415178185185615e+01   1.3082987874665991e-01   4.8829264996514672e+00
   1.3411481816974216e+01   1.0101021368426948e-01   4.8845004010862505e+00
   1.3362666871396218e+01   9.7893474914654444e-02   4.8813579151121571e+00
   1.3349617320094049e+01   9.1585588106873506e-02   4.8813553687843747e+00
   1.3353938850649795e+01   8.0617793036399252e-02   4.8829277956620105e+00
   1.3400254110104665e+01   9.0028652919688201e-02   4.9033530271880430e+00
   1.3360894359131391e+01   7.5891247964435374e-02   4.9017825013346661e+00
   1.3285976985629812e+01   6.0220891489716807e-02   4.8829300133956899e+00
   1.3310524316351367e+01   7.5905738750907378e-02   4.8782148990013434e+00
   1.3303208412037753e+01   4.1339682777502967e-02   4.8782139550137948e+00
   1.3326054945357685e+01   5.4273725483645445e-02   4.8981413535321048e+00
   1.3225433987938922e+01   3.5083351089985025e-02   4.8813560675304881e+00
   1.3194122501094228e+01   6.8414931359406664e-03   4.8797878332516778e+00
   1.3293922956030849e+01   2.8757568323204780e-02   4.8970703995607572e+00
   1.3285101981915156e+01   1.7784469306788203e-02   4.9002122441571849e+00
   1.3310019247068503e+01   4.9203456993015024e-02   4.9017821124310466e+00
   1.3318104076076894e+01   3.8213473489781678e-02   4.9064952009165212e+00
   1.3277241599327022e+01   2.0685451642015753e-03   4.9096380450916195e+00
   1.2678315681135606e+01   1.3711605223964768e-01   4.9363409503468247e+00
   1.3074237311517487e+01   1.3714373744652336e-01   4.8876394717083125e+00
   1.3239504956335868e+01   1.3554510884573867e-01   4.8797836553811580e+00
   1.3130554651854277e+01   1.3469733378733592e-01   4.8830676176832393e+00
   1.3051851883568515e+01   1.3868785947773501e-01   4.8813548474085806e+00
   1.3028903972093353e+01   1.2462960884282839e-01   4.8830670324888974e+00
   1.3063761593487115e+01   1.2612159174348073e-01   4.8876391212402321e+00
   1.2947060284096542e+01   1.4025272914170778e-01   4.8892090934932551e+00
   1.3047908261334303e+01   1.2769081409668095e-01   4.8876381171229983e+00
   1.3281189735596318e+01   1.1199337612255730e-01   4.8876386192681087e+00
   1.3123265606890685e+01   1.1464787550798765e-01   4.8830713333214160e+00
   1.3012594042113548e+01   1.1675228128856538e-01   4.8860705979911998e+00
   1.2827196462147954e+01   1.1828362105818756e-01   4.8986351826266725e+00
   1.2609595058245684e+01   1.4183893481134291e-01   4.8939219026715932e+00
   1.2736878673928986e+01   1.4340576981894249e-01   4.8703581940663243e+00
   1.2560352811153473e+01   1.2454165629624560e-01   4.8923517878187077e+00
   1.2489808544805520e+01   1.4811024378418464e-01   4.8860689255786216e+00
   1.2401501121942053e+01   1.2611624156203102e-01   4.8939219652125319e+00
   1.2602965478349688e+01   1.3081863505752167e-01   4.9033500185469787e+00
   1.2421841905979241e+01   1.4967708914876965e-01   4.8954950488415925e+00
   1.2507566095091802e+01   1.4025086657868702e-01   4.8954938247962581e+00
   1.2763216376502399e+01   1.1985130959643724e-01   4.9002101659708002e+00
   1.2311395260450134e+01   1.2145408938148272e-01   4.8954974966589893e+00
   1.2460013443063133e+01   1.1198091739138540e-01   4.9096329078234504e+00
   1.3378474697843584e+01   1.3711721555427220e-01   4.9347684808414618e+00
   1.3279137177874698e+01   1.2144667546100348e-01   4.9127790782122034e+00
   1.3310670336968121e+01   1.2609993910553227e-01   4.9253431537173586e+00
   1.3284594263469923e+01   1.0098488785377853e-01   4.9316335137776726e+00
   1.3223529013267109e+01   1.0099223457644119e-01   4.9143517533033245e+00
   1.3204149892345399e+01   9.6309343311073242e-02   4.9112088657540642e+00
   1.3239407060844606e+01   9.6302692384711244e-02   4.9222065333837284e+00
   1.2620190810971362e+01   1.3866296100405884e-01   4.9284834465398628e+00
   1.2581694036949715e+01   1.1195978502445379e-01   4.9520548403954336e+00
   1.2452019829079378e+01   1.1356083141706809e-01   4.9190600293286764e+00
   1.3221251453629078e+01   7.4270795698603634e-02   4.9332027114753032e+00
   1.3165985787363210e+01   3.9286238478592167e-02   4.8730204843298033e+00
   1.3197034781151938e+01   2.7973685151785740e-03   4.8859945007076631e+00
   1.3173135424173319e+01   2.7976240282581617e-03   4.8809687068817187e+00
   1.3174357869683288e+01   4.6038434790222411e-02   4.9363437261308682e+00
   1.3159022438220743e+01   7.7446320265414217e-02   4.9127801666077104e+00
   1.3128958972432125e+01   4.7598825868786859e-02   4.9206330350563228e+00
   1.3131671511314313e+01   3.6624520486367947e-02   4.9284890649923119e+00
   1.3099031306407547e+01   2.7202190002150760e-02   4.9222042438262168e+00
   1.3079818978626768e+01   1.1486669258369827e-02   4.9237768969706597e+00
   1.3110639359818004e+01   1.1481063918156576e-02   4.9332047960571064e+00
   1.3889427037687156e+01   1.0726276511375885e-01   4.9913286026705004e+00
   1.4283310002953902e+01   9.0009189496864622e-02   4.9426257968512672e+00
   1.4256153517650544e+01   9.3153274092965255e-02   4.9394896409355429e+00
   1.4159852327162843e+01   9.6292459175378334e-02   4.9410571281815976e+00
   1.4293433479989510e+01   9.0007781142530247e-02   4.9457679415819191e+00
   1.3991935040984753e+01   9.3147754240550787e-02   4.9520516576444340e+00
   1.3968774985215740e+01   9.6284159934674443e-02   4.9567686069865138e+00
   1.3875430435969943e+01   9.9397456870057271e-02   4.9457717176559495e+00
   1.3591534342863207e+01   1.1040236056525332e-01   4.9457704027328999e+00
   1.3721948947733699e+01   1.0099194666258049e-01   4.9646220132094268e+00
   1.4503688854183993e+01   8.9989053737771441e-02   4.9834710557946256e+00
   1.4526381779960280e+01   8.9574924969168884e-02   4.9734891979073499e+00
   1.4096821787078747e+01   9.3130963345761764e-02   4.9803335272929177e+00
   1.4415027523962138e+01   8.9989937469774864e-02   4.9787563935624650e+00
   1.4126182173415186e+01   9.4661071115622247e-02   4.9881859944090001e+00
   1.4143833972481858e+01   8.6837384775479309e-02   4.9928970426060850e+00
   1.3764702460945459e+01   9.9375641876957896e-02   4.9897567270243472e+00
   1.3775716446043813e+01   9.9462696415032248e-02   4.9734909620150489e+00
   1.3837957474327236e+01   8.9982316900646134e-02   4.9960399105639572e+00
   1.2741017810664774e+01   1.1193293850223184e-01   4.9991812885744018e+00
   1.3437931218906465e+01   1.0256571038082772e-01   4.9567679168312999e+00
   1.3353658995512840e+01   1.0728240533477426e-01   4.9551952378935438e+00
   1.3172347733669879e+01   1.0727921123558862e-01   4.9583385226170780e+00
   1.2999163270314671e+01   1.0727461685343039e-01   4.9693350283150579e+00
   1.2986635403180340e+01   1.0727547410229760e-01   4.9661930557178575e+00
   1.2918819423155547e+01   1.0947142900048622e-01   4.9634435853102365e+00
   1.2558196471245900e+01   1.1671524545772630e-01   4.9551974590164605e+00
   1.2676014031009432e+01   1.1354720676215035e-01   4.9913277642593652e+00
   1.3544991185506989e+01   1.0254508252562600e-01   4.9944694353649259e+00
   1.3395745260837899e+01   1.0437295324574142e-01   4.9935784078115404e+00
   1.3223206801987594e+01   1.0725338239658291e-01   5.0086060762216995e+00
   8.9594553441135591e+00   2.3755637241484978e-01   4.9693269609547999e+00
   1.0800578718003587e+01   1.8264761116729708e-01   4.8860701086363933e+00
   1.1466808673510082e+01   1.6491508373199038e-01   4.7825887200603843e+00
   1.2044546401678522e+01   1.5289446130362166e-01   4.7525200667568370e+00
   1.1947242501031189e+01   1.5447436741825077e-01   4.7132331920257577e+00
   1.1861319300068859e+01   1.5607164849345317e-01   4.7148036382408431e+00
   1.1865734507410025e+01   1.5603094844968915e-01   4.7368052341702844e+00
   1.1626455253283822e+01   1.6075528339547818e-01   4.7352336132121513e+00
   1.1627074001684733e+01   1.6076073052238934e-01   4.7226582965204358e+00
   1.1250972833085369e+01   1.6858468248285968e-01   4.7273743787710218e+00
   1.1325454415755731e+01   1.6700745676882456e-01   4.7462328469205959e+00
   1.2073486930196925e+01   1.5287232697924433e-01   4.7949435707107249e+00
   1.2129137094744745e+01   1.5131763804131315e-01   4.7540882834795104e+00
   1.1709204175604933e+01   1.5977794040535054e-01   4.7675203932465333e+00
   1.1728938427307305e+01   1.5914913656609561e-01   4.7792283276785081e+00
   1.1215880499293357e+01   1.7015513568311266e-01   4.7886555747328563e+00
   1.1485153092059853e+01   1.6388654159491189e-01   4.7572284831373883e+00
   1.1206638444331332e+01   1.7008741261126650e-01   4.7574659283519045e+00
   1.0537919303473243e+01   1.8582959832599527e-01   4.8059424059972926e+00
   1.0971622449510965e+01   1.7488499823443032e-01   4.7462338278225280e+00
   1.1037434286584949e+01   1.7332680328810401e-01   4.7273740018681591e+00
   1.0691594932662714e+01   1.8115242725311539e-01   4.7336569149884209e+00
   1.0902224322250483e+01   1.7646438735746231e-01   4.7367990842185872e+00
   1.0439434806957175e+01   1.8741592186168571e-01   4.7478048138152689e+00
   1.0542593146669136e+01   1.8498868309373243e-01   4.7172795423945457e+00
   1.0370079973718429e+01   1.8901151864358548e-01   4.7273730320904113e+00
   1.0379936965458315e+01   1.8899646133010387e-01   4.7556580419235921e+00
   1.1080395807470687e+01   1.7329169097282718e-01   4.7996520795350621e+00
   1.1128508376159402e+01   1.7170519164522038e-01   4.7682332087455723e+00
   1.0768249425453238e+01   1.7998406193423894e-01   4.7624944070836062e+00
   1.0932427808129994e+01   1.7643511173973830e-01   4.7949385873778692e+00
   1.0459815629576317e+01   1.8739888348610600e-01   4.7855152710410653e+00
   1.0577777585715584e+01   1.8426951551033058e-01   4.7760895636305767e+00
   1.0390358461922958e+01   1.8898830189630661e-01   4.7713753333499751e+00
   1.1623745768291132e+01   1.6382860059494939e-01   4.8719296334026634e+00
   1.2119953899586790e+01   1.5285300327999785e-01   4.8310834481552405e+00
   1.2083036707079641e+01   1.5286829060124002e-01   4.8027979239812986e+00
   1.1916588542683641e+01   1.5599933779548150e-01   4.8028016239311935e+00
   1.1862043708165386e+01   1.5757297592064487e-01   4.8232229209077238e+00
   1.1546480449523093e+01   1.6385127711352604e-01   4.8263660959240777e+00
   1.1596409067014969e+01   1.6228696893496858e-01   4.8028023901913199e+00
   1.1313214125012353e+01   1.6853841586302895e-01   4.8200836429472336e+00
   1.1248357980239115e+01   1.7013527083618532e-01   4.8263661511909577e+00
   1.2206177798380869e+01   1.5282994999945215e-01   4.8766416963635191e+00
   1.2130773762046715e+01   1.5285204335809066e-01   4.8373665492326694e+00
   1.1818427583953838e+01   1.5911693081727241e-01   4.8467953823770102e+00
   1.2000953089010640e+01   1.5596921927748975e-01   4.8593635907090338e+00
   1.1350061809251129e+01   1.7010564786612711e-01   4.8829275034059725e+00
   1.1601062300331035e+01   1.6383601930426314e-01   4.8593635402179434e+00
   1.1460319930164035e+01   1.6694695283971275e-01   4.8640770549522481e+00
   1.0378785055796513e+01   1.9363299331491934e-01   4.8986387702234921e+00
   1.1195034637490007e+01   1.7167063974303873e-01   4.8389331102934774e+00
   1.1166278617256602e+01   1.7168036157079358e-01   4.8185100911754644e+00
   1.0945472147577098e+01   1.7642984248696023e-01   4.8059436565947262e+00
   1.0901167637253039e+01   1.7798069017438964e-01   4.8326489141502531e+00
   1.0600571810788557e+01   1.8580625332954140e-01   4.8483659708395574e+00
   1.0686250000599603e+01   1.8267602435671604e-01   4.8247963299462349e+00
   1.0385731387547676e+01   1.9053153726019884e-01   4.8326526020480722e+00
   1.0290563445496947e+01   1.9365859199030755e-01   4.8483631482225720e+00
   1.1224767584850833e+01   1.7324553938483891e-01   4.8907810756225594e+00
   1.1137076562184575e+01   1.7326725193864484e-01   4.8483601075051856e+00
   1.1033778977096695e+01   1.7639571611256247e-01   4.8703588159953899e+00
   1.1072868080026286e+01   1.7638861620015039e-01   4.8876404188784699e+00
   1.0671869738920448e+01   1.8496900013974485e-01   4.8579527991337788e+00
   1.0376974342145306e+01   1.9211702078386836e-01   4.8640716096466576e+00
   8.8903539761366090e+00   2.4029513437651195e-01   4.9132098006422300e+00
   9.5247748648679877e+00   2.1408244060008333e-01   4.8169423539094796e+00
   9.5845961524570242e+00   2.1099457468139288e-01   4.7556622101440809e+00
   9.6170761581022131e+00   2.1006105079120793e-01   4.7172773878866074e+00
   9.4558834889709811e+00   2.1508371967845663e-01   4.7373729574914680e+00
   9.2720956360278119e+00   2.2040272153370244e-01   4.7415165042907930e+00
   9.3227373768938708e+00   2.2036121930693092e-01   4.8185056303994189e+00
   9.6515145749024800e+00   2.0940517724024646e-01   4.7839400394538520e+00
   9.2868045673364961e+00   2.2038384949666984e-01   4.7729480986025568e+00
   8.6716633711548106e+00   2.4235490427651490e-01   4.8059450774355756e+00
   9.2329222545889564e+00   2.2196156989123916e-01   4.7603755231426943e+00
   9.0762982693488539e+00   2.2668743898700325e-01   4.7289475886879409e+00
   8.8340314201921402e+00   2.3536030703871663e-01   4.7172754438501316e+00
   8.9869343192210422e+00   2.3028965691428041e-01   4.7423968185984871e+00
   8.6087856552381403e+00   2.4393799125101462e-01   4.7682276063743796e+00
   8.7137409896073343e+00   2.3927178919550329e-01   4.7148002318076090e+00
   8.3896215833550549e+00   2.5180792499344329e-01   4.7415133621227543e+00
   8.3570877325204620e+00   2.5335723536995303e-01   4.7619427817520767e+00
   9.0272703268606058e+00   2.2979879326383343e-01   4.8075085702806790e+00
   9.2410571508296062e+00   2.2194966271486824e-01   4.7792279559843305e+00
   8.7872974114658824e+00   2.3764060780050994e-01   4.7870862626719219e+00
   8.7998468744178719e+00   2.3763481928479124e-01   4.8027919357438762e+00
   8.5380598209628982e+00   2.4704180451329577e-01   4.8012217075617141e+00
   8.6507688193387189e+00   2.4237236512140900e-01   4.7729495143654432e+00
   8.3353362687507708e+00   2.5491984175492405e-01   4.7933668102238993e+00
   9.7495641021801571e+00   2.1091610994787632e-01   4.9002029272870491e+00
   9.5676543877981928e+00   2.1406346033238519e-01   4.8546471637135307e+00
   9.5867850200184428e+00   2.1252282204326300e-01   4.8295106518106765e+00
   9.5115803951319258e+00   2.1509629005541764e-01   4.8227870036135592e+00
   9.5679504079906774e+00   2.1507091948600229e-01   4.8679986271942894e+00
   9.6274733100334284e+00   2.1562063823783897e-01   4.9206262285260998e+00
   9.6748565184578847e+00   2.1249167981137584e-01   4.8907782097734671e+00
   9.4261703701511248e+00   2.2032390644206493e-01   4.8939207801990463e+00
   8.4710160561739585e+00   2.5642993921087531e-01   4.9253461134690859e+00
   9.2182324086745613e+00   2.2505166786483663e-01   4.8546450426485510e+00
   9.3040347726919528e+00   2.2191274635545552e-01   4.8467909239210005e+00
   9.0694695227783289e+00   2.2977706719624258e-01   4.8499322514748835e+00
   9.0089903243820295e+00   2.3291871526836960e-01   4.8687828185279516e+00
   8.8056351082590858e+00   2.4029296370945155e-01   4.8629679048670429e+00
   8.6817840345985910e+00   2.4389627423124319e-01   4.8562225741974823e+00
   8.3598371031709089e+00   2.5646343774588493e-01   4.8577909241902635e+00
   8.4649957184632996e+00   2.5330514944124016e-01   4.8766398943092817e+00
   9.2039521740368677e+00   2.2973764017133338e-01   4.9253394558006658e+00
   9.2556507239066121e+00   2.2503964543512797e-01   4.8797812366027244e+00
   8.9840882031152152e+00   2.3444664547261321e-01   4.8813509493652507e+00
   8.9479487532395936e+00   2.3758322651851013e-01   4.9127801214794102e+00
   8.8142760268901839e+00   2.4230307816275509e-01   4.9112077557444991e+00
   8.5873130066658803e+00   2.5015527646628255e-01   4.9017834683678077e+00
   9.8847420632475789e+00   2.0776742072136900e-01   4.9127728745975743e+00
   9.7133448244458513e+00   2.0782789939434221e-01   4.7965114324624816e+00
   1.0074440222468194e+01   1.9684035232059219e-01   4.7478002335491025e+00
   1.0187532288480073e+01   1.9371820182156785e-01   4.7257991066783340e+00
   9.8466193161869509e+00   2.0315774607012291e-01   4.7148048372768265e+00
   9.8088739662329232e+00   2.0493207570525443e-01   4.7624959183878932e+00
   9.6807064427335057e+00   2.0785784531805035e-01   4.7399461390178672e+00
   9.6812501602566279e+00   2.0785873264134405e-01   4.7336634576341377e+00
   1.0099904854460263e+01   1.9682031032903510e-01   4.7886593655718563e+00
   1.0025737696541487e+01   1.9841897856319474e-01   4.7650839019787110e+00
   9.8242606626437290e+00   2.0493398680741606e-01   4.7876195740682777e+00
   9.8795409745304461e+00   2.0311949091243933e-01   4.7902246034928542e+00
   9.6989496767407246e+00   2.0783950852863084e-01   4.7745169004193144e+00
   9.8250312341783932e+00   2.0778327948844005e-01   4.8797826392475123e+00
   1.0094028306520544e+01   1.9838339584784354e-01   4.8373674844510930e+00
   1.0237630440435618e+01   1.9367761568447517e-01   4.8106506879198490e+00
   9.7977886716986298e+00   2.0624374075065705e-01   4.8232279932669968e+00
   9.8861142115356930e+00   2.0491069632577846e-01   4.8428770312313212e+00
   9.8023571100147144e+00   2.0779160656639134e-01   4.8656437203091727e+00
   9.7470699158004415e+00   2.0780984004494846e-01   4.8310815201247177e+00
   1.0189412321032995e+01   1.9835320735253628e-01   4.8923521576589390e+00
   1.0262659714114953e+01   1.9522105513651797e-01   4.8656420700988035e+00
   9.8764977408656875e+00   2.0621415112127645e-01   4.8797827430165670e+00
   9.9881463538945496e+00   2.0491554158792333e-01   4.9031624276503383e+00
   1.1053573846413475e+01   1.4645430169592805e-01   5.0604401965484955e+00
   1.1461936249897526e+01   1.3078846474189315e-01   4.9614777084478181e+00
   1.2251333695316360e+01   1.5281743866942510e-01   4.8986355375533961e+00
   1.2153165572337315e+01   1.5438952674412193e-01   4.8907804214884099e+00
   1.2286099307651392e+01   1.4467989601914791e-01   4.8931131488257975e+00
   1.1991368996617860e+01   1.5753881679873724e-01   4.8939227504507024e+00
   1.1929125106044408e+01   1.2927869361097405e-01   4.9017787967431286e+00
   1.2332558738269727e+01   1.3081738745703042e-01   4.9064907767368622e+00
   1.1978222479663417e+01   1.5124375599682183e-01   4.9033488123870201e+00
   1.1862525046661270e+01   1.4495879100650885e-01   4.9049200740154522e+00
   1.2081781291251428e+01   1.1985074633223634e-01   4.9017820834257773e+00
   1.2183821392327861e+01   1.1828404529954813e-01   4.8970647804381988e+00
   1.2019489681533280e+01   1.2611310319790847e-01   4.9002060830401799e+00
   1.2006848669225786e+01   1.1984911076767797e-01   4.9049229221289909e+00
   1.1707294327546439e+01   1.5753054533182356e-01   4.9080609332810541e+00
   1.1627177678637837e+01   1.6491551952683597e-01   4.9031651918635388e+00
   1.1601225438153765e+01   1.3553283363302837e-01   4.9064917804535533e+00
   1.1435702634142469e+01   1.5970970340261895e-01   4.9081841717168047e+00
   1.1444132506689444e+01   1.3964900062076160e-01   4.9031634318300314e+00
   1.1780241430216273e+01   1.4967268499689279e-01   4.9064905065221716e+00
   1.1559910620270772e+01   1.6692411052860687e-01   4.9096328946337593e+00
   1.1404516026324220e+01   1.5594135697260056e-01   4.9127743727154733e+00
   1.1800321000576256e+01   1.2298703575346998e-01   4.9112081652716002e+00
   1.1744849424028645e+01   1.2927919765937115e-01   4.9049275779910015e+00
   1.1455746614988042e+01   1.3240508732574122e-01   4.9096325165399897e+00
   1.1349486248660332e+01   1.3080894858974537e-01   4.9237727910244100e+00
   1.1438202194187731e+01   1.3470070727615455e-01   4.9533941388195259e+00
   1.1489005463638486e+01   1.3236950640306586e-01   4.9756143259774479e+00
   1.1180024196653109e+01   1.7323169062549326e-01   4.9174873035117432e+00
   1.1180829710383886e+01   1.7480921035341412e-01   4.9033497449767678e+00
   1.1099069719437615e+01   1.4338319163051702e-01   4.9159156072649095e+00
   1.0899218655347870e+01   1.8106408961829210e-01   4.9017799023780864e+00
   1.0995276727581803e+01   1.5280871203385410e-01   4.9174871457748166e+00
   1.1145635328966986e+01   1.6066244460732323e-01   4.9174887472863809e+00
   1.1138662733781555e+01   1.7637560210397343e-01   4.9159177417927822e+00
   1.0930180015018006e+01   1.4182437602094802e-01   4.9222019662306522e+00
   1.1115758152036774e+01   1.3552460811103570e-01   4.9206287675137101e+00
   1.1192070400529206e+01   1.3552757022098727e-01   4.9143456933251644e+00
   1.1072326722377595e+01   1.3866925707408090e-01   4.9159159219794084e+00
   1.1056251620055010e+01   1.3712370451097450e-01   4.9253428271143767e+00
   1.0821780228545624e+01   1.6848557388473762e-01   4.9237730406186824e+00
   1.0792733376261271e+01   1.8419700767992392e-01   4.9127780143919031e+00
   1.0660503770062276e+01   1.6066044137737182e-01   4.9237724606236828e+00
   1.0537977701801660e+01   1.9049030192341318e-01   4.9127769752406785e+00
   1.0378271956461056e+01   1.5907500142340308e-01   4.9300544695560831e+00
   1.0758192437615623e+01   1.4337448605332578e-01   4.9300560758418319e+00
   1.0425800700019447e+01   1.7636527437349492e-01   4.9316275779623071e+00
   1.0463450059719547e+01   1.5122818019023324e-01   4.9331986739421723e+00
   1.0823152133891909e+01   1.4182316822416599e-01   4.9269133391969433e+00
   1.1390776265484325e+01   1.3395972436099154e-01   4.9394820673550122e+00
   1.2029510861108776e+01   1.2761446302257745e-01   5.0305980975868270e+00
   1.1609025547785869e+01   1.3076464443873018e-01   5.0086083470586242e+00
   1.1514256771742151e+01   1.3077856936012947e-01   4.9803296366404286e+00
   1.2459775229724331e+01   1.1825194104776668e-01   5.0196012086839250e+00
   1.2505587778405101e+01   1.1959037254167097e-01   5.0086497164185202e+00
   1.2205029945632743e+01   1.2457345530474462e-01   5.0186918725132017e+00
   1.2216169232468662e+01   1.2446978843678866e-01   5.0258841994605259e+00
   1.1736401540530684e+01   1.3074467519714605e-01   5.0431629098973856e+00
   1.2135964722650153e+01   1.2457500822073554e-01   5.0237186316755089e+00
   1.1650995679639315e+01   1.3547001305809372e-01   5.0196048115128971e+00
   1.0914840000842934e+01   1.4958730017183303e-01   5.0651511304075187e+00
   1.1585099870336467e+01   1.3547950777683815e-01   5.0038934521787919e+00
   1.1549727830586573e+01   1.3393202655035594e-01   4.9928963607342309e+00
   1.1705549047162675e+01   1.3705082824337411e-01   5.0573010360342447e+00
   1.1446543578988202e+01   1.3962449654177297e-01   5.0387820997677739e+00
   1.1319659872603594e+01   1.4175075797541495e-01   5.0588724474755349e+00
   1.1781517290947885e+01   1.3232605114268225e-01   5.0557308186180991e+00
   1.1660388525595105e+01   1.3391721570620227e-01   5.0243170498857666e+00
   1.1385178100207742e+01   1.3962562508673190e-01   5.0438086564143783e+00
   1.1401705241964510e+01   1.4016036613706695e-01   5.0604438385685899e+00
   1.1190644640971358e+01   1.4462138969573746e-01   5.0488258699973221e+00
   1.0941860867208923e+01   1.4970214245028554e-01   5.0588756204967078e+00
   1.1153597439126445e+01   1.4331140744720103e-01   5.0588722123676515e+00
   8.7036021575081772e+00   2.4069421369542129e-01   4.9771821865917119e+00
   9.8472523555061802e+00   2.1089300404373354e-01   4.9457606765642019e+00
   9.6387369633640265e+00   2.1717519775237873e-01   4.9489060046182489e+00
   9.7292533673150903e+00   2.1401837944849592e-01   4.9426189982613966e+00
   9.5373010618932437e+00   2.2005429677930777e-01   4.9332997850369242e+00
   9.0018762638910452e+00   2.3531320524215907e-01   4.9634384379051522e+00
   9.3594136486439155e+00   2.2656874688405301e-01   4.9551883548719120e+00
   9.3306521910205191e+00   2.2510341810535647e-01   4.9533948695421381e+00
   9.0306333764695594e+00   2.3756522317507428e-01   4.9520499223204046e+00
   9.0656089867870424e+00   2.3440097856866113e-01   4.9661854874759372e+00
   8.5968890965263132e+00   2.5327036693714194e-01   4.9489076504570457e+00
   9.2626250029648727e+00   1.9822448444437077e-01   5.1311192200166209e+00
   1.0406294919768131e+01   1.5433790242728090e-01   4.9913212155392648e+00
   1.0236672704552049e+01   1.9205397002710775e-01   4.9363393841752705e+00
   1.0191721335442802e+01   1.9990565696043863e-01   4.9206281212653034e+00
   1.0226076740477209e+01   1.6691286501533437e-01   4.9331974151600493e+00
   1.0021695572940589e+01   2.0488623338066420e-01   4.9182347561039546e+00
   1.0034035809094016e+01   1.7007833889037757e-01   4.9379106055625561e+00
   1.0276808536727051e+01   1.5436211949820161e-01   4.9441948108047562e+00
   1.0105680391806827e+01   1.9989442261113916e-01   4.9394787618821141e+00
   1.0018811324526727e+01   1.6063829957937997e-01   4.9630450754824853e+00
   9.8400139179469654e+00   1.8732069946860908e-01   4.9441984861758828e+00
   9.9356119926641160e+00   2.0775763097238159e-01   4.9347672770489632e+00
   9.8159352777157203e+00   1.7792432098885616e-01   4.9426216204339362e+00
   9.4435128019979402e+00   1.9360693086033423e-01   4.9520483372828767e+00
   9.6342624292020389e+00   1.8104108023272897e-01   4.9473369577201574e+00
   9.8215666239801589e+00   1.6535759965878125e-01   4.9489066027859803e+00
   9.5181837875255386e+00   2.0931838031770422e-01   4.9536169917619732e+00
   9.5286127499670155e+00   1.7320830220094352e-01   4.9599029224859539e+00
   1.0112849844955921e+01   1.6488095320931440e-01   4.9935803372331167e+00
   1.0413668179718423e+01   1.5277753155211846e-01   4.9771851869633386e+00
   1.0060769547003352e+01   1.6534381935178410e-01   4.9787550212258793e+00
   9.0844415959532157e+00   1.9670291946510243e-01   5.0353052323829832e+00
   9.4582598195027394e+00   2.1401191711484391e-01   4.9551893701972727e+00
   9.3765155757341425e+00   1.9674147420121418e-01   4.9536203815882134e+00
   9.2210848752602317e+00   1.8731405213563956e-01   4.9583358630658854e+00
   9.1453943121449388e+00   2.1002172688802090e-01   4.9584180207654649e+00
   9.1691627349678999e+00   1.9360243048628667e-01   4.9599018256781529e+00
   9.4148695080304226e+00   1.7791726183836082e-01   4.9583323938865016e+00
   9.1743830549109955e+00   2.2499241061528166e-01   4.9630426737492650e+00
   8.9994933661931213e+00   1.8995782710670595e-01   4.9885573692895511e+00
   8.8478364619865122e+00   2.2813007828555271e-01   4.9724681955847956e+00
   8.7846620648168354e+00   2.1559160055793949e-01   4.9708987390482342e+00
   8.8959549218784275e+00   1.9673430975002731e-01   4.9677587831439229e+00
   8.5248508681459647e+00   2.2655823697399818e-01   4.9787511118454342e+00
   8.5342590662295930e+00   2.0930438552865491e-01   4.9787543353621313e+00
   8.8120558335678965e+00   1.9516500618492449e-01   4.9803229594404819e+00
   8.6421577168694395e+00   2.3914556702852346e-01   4.9787518396606929e+00
   8.6603996376047796e+00   2.0144674947505431e-01   4.9803251645236450e+00
   9.1007281135359719e+00   1.8992045902349058e-01   5.0237173337094649e+00
   9.0132943864818937e+00   1.8995721069107349e-01   4.9935746893124477e+00
   8.7202801761489859e+00   2.0769546873010619e-01   5.0541596332950300e+00
   9.0410684719808412e+00   1.9357171332476930e-01   5.0195956034790434e+00
   8.7691370212084720e+00   2.0143187750814745e-01   5.0117428855623931e+00
   1.0404702318893943e+01   1.6839073643808808e-01   5.1044180829246084e+00
   1.0596411567825685e+01   1.5467377591980766e-01   5.0438056033973062e+00
   1.0463155510387917e+01   1.5432925156894947e-01   5.0101745263598385e+00
   1.0211124655435462e+01   1.6063342453932791e-01   5.0274533966844466e+00
   1.0284606981560355e+01   1.6373828177512634e-01   5.0494455739692929e+00
   1.0721729866709802e+01   1.5744525583753585e-01   5.0808577489065119e+00
   1.0646889691940553e+01   1.5274038873018797e-01   5.0478728499549534e+00
   1.0342101544684040e+01   1.6529996441569542e-01   5.0667269292191905e+00
   1.0403405760472145e+01   1.6214935819540699e-01   5.0824274297302532e+00
   1.0711970041781717e+01   1.4486705988911486e-01   5.0792921590274593e+00
   1.0462349185917855e+01   1.5271406629491693e-01   5.0981364952815271e+00
   1.0102024946596153e+01   1.6999843048456478e-01   5.0981379540354030e+00
   1.0178693171304211e+01   1.7000784368514640e-01   5.0839811135992932e+00
   9.9641592791589293e+00   1.7471677472810443e-01   5.0949921328016519e+00
   9.0061723569392669e+00   2.0607503562800472e-01   5.1452575749658624e+00
   9.2809282521856087e+00   1.8992144401015279e-01   5.0789593411591918e+00
   9.2465833737317809e+00   1.8992204716778155e-01   5.0689184419633850e+00
   9.2363167295328275e+00   1.9354258729864779e-01   5.0808604292955479e+00
   9.2036916266191788e+00   1.9491804440043106e-01   5.0638935320689722e+00
   9.8341548022253029e+00   1.7988530128802535e-01   5.1090967488063175e+00
   9.8392585754376327e+00   1.7988271909940626e-01   5.0990541473454876e+00
   9.4359810960633546e+00   1.8992163636210027e-01   5.1191441752257267e+00
   9.6141990789461502e+00   1.8726325751919878e-01   5.1264087248677725e+00
   9.3023672258293484e+00   1.9667055720200116e-01   5.0981380421580269e+00
   9.1477474745387450e+00   2.0293802851845108e-01   5.1326919380380378e+00
   1.4786193658355790e+01   1.2284469494245324e-01   5.2803095553890138e+00
   1.5590774742471170e+01   7.2675794972570526e-02   5.0902825145580302e+00
   1.6504946204096427e+01   7.2720437013589406e-02   5.0054637794324091e+00
   1.6363899878526052e+01   7.1132930387649576e-02   4.9756145941318515e+00
   1.6322933964961322e+01   6.9548839257785086e-02   4.9646194251631366e+00
   1.6308865233641978e+01   6.9545615502723562e-02   4.9677628305276329e+00
   1.6342566422339761e+01   6.9543102250319178e-02   4.9756182626991565e+00
   1.6478873640564576e+01   6.9525269991959959e-02   5.0054615160631037e+00
   1.6452528898551797e+01   7.2726796037492061e-02   4.9944656287748295e+00
   1.5519669975030975e+01   8.5234882867476922e-02   5.0384525955641761e+00
   1.5341101763538726e+01   8.5254003480547125e-02   5.0023227803153665e+00
   1.5257636417319885e+01   8.5262298909598980e-02   4.9866103152012862e+00
   1.5262845592795106e+01   8.2101676899118639e-02   4.9850420015595205e+00
   1.5234081200672984e+01   8.3672069020322523e-02   4.9960373985148783e+00
   1.5492513333311740e+01   8.2073740562770586e-02   5.0353103116844373e+00
   1.5379046976690590e+01   8.5250185438042164e-02   5.0101773218221251e+00
   1.5414976644548831e+01   8.0541971155054320e-02   5.0196023322888284e+00
   1.6241079617468074e+01   6.6358450667005658e-02   5.0792915747851994e+00
   1.6738967788318071e+01   6.9508121989902333e-02   5.0384527685037259e+00
   1.6603217405501439e+01   7.2710703741598867e-02   5.0243139692090271e+00
   1.6864253409880586e+01   7.2688447140119281e-02   5.0651537283532502e+00
   1.6820116550552051e+01   7.8951445511994636e-02   5.0525856949439509e+00
   1.6795367824545760e+01   7.4200286615701216e-02   5.0557304156279352e+00
   1.6781605751717116e+01   7.2691134620241793e-02   5.0620117068753672e+00
   1.6343088274993651e+01   6.6367097770433967e-02   5.0651541345900810e+00
   1.6227882862352253e+01   6.9492475548120811e-02   5.0667241884632954e+00
   1.6352807702274831e+01   6.4816515205249781e-02   5.0761479326702394e+00
   1.6927628173401082e+01   6.1670235695309557e-02   5.0510151020392939e+00
   1.6571849075472930e+01   6.3261176865546331e-02   5.0588703096936696e+00
   1.6420324480578117e+01   6.4309879548735127e-02   5.0638940317663321e+00
   1.5210954992357909e+01   7.7345781083789769e-02   5.1028493440949925e+00
   1.5635521828774408e+01   8.5223945707039547e-02   5.0588727369347115e+00
   1.5603636622204613e+01   8.5226898459108497e-02   5.0541582559975389e+00
   1.5470442700950255e+01   8.3643940028098732e-02   5.0478751392037537e+00
   1.5649349002390641e+01   8.2058013595961043e-02   5.0635792296394007e+00
   1.5545538740328075e+01   8.4511093302026483e-02   5.0739423410187250e+00
   1.5091696345092988e+01   8.9524607605884890e-02   5.0789659497377322e+00
   1.6055752493189132e+01   6.7969306036002000e-02   5.0824322780462063e+00
   1.5954443723899464e+01   8.8370855282857055e-02   5.0714371882920748e+00
   1.5961178057159001e+01   7.4214817541271114e-02   5.0730090305504048e+00
   1.5726635687646549e+01   8.9556049232497895e-02   5.0739442453668282e+00
   1.5680848441247145e+01   7.1069573609302480e-02   5.0792902382062950e+00
   1.5853629307162288e+01   6.9512291772470855e-02   5.0855731938082105e+00
   1.5391983675848314e+01   7.8930665276257694e-02   5.0871410033915216e+00
   1.5122183797393188e+01   8.9542513753662692e-02   5.0890112741374480e+00
   1.5161642701076524e+01   8.0524338965468220e-02   5.0934252239864586e+00
   1.3486309627223489e+01   1.2286099063402806e-01   5.1405430793242157e+00
   1.4206295475328746e+01   1.2603066958431006e-01   5.0572975084918887e+00
   1.4351556122511386e+01   1.0406140185865666e-01   5.0305990354161789e+00
   1.4224165703427987e+01   9.4648505290764268e-02   5.0117495943927706e+00
   1.4234894911803528e+01   8.6826131398562698e-02   5.0148884879764744e+00
   1.4247550976786256e+01   8.6823286755582624e-02   5.0180301554483933e+00
   1.3996648644749321e+01   1.0724740017306350e-01   5.0227432866540411e+00
   1.3947259287180296e+01   1.0725318366572530e-01   5.0117493904628736e+00
   1.3828635655581357e+01   1.0096382053256717e-01   5.0164604930169636e+00
   1.3878312584789009e+01   9.1514756394189434e-02   5.0054644039624705e+00
   1.4032881283654079e+01   9.9468904010868067e-02   5.0387843561221839e+00
   1.3969196589070860e+01   8.9966435967542696e-02   5.0258873594593876e+00
   1.4471773555727127e+01   1.0437604961272942e-01   5.0488307417179001e+00
   1.4364600096871859e+01   9.3098525207895189e-02   5.0400200603188647e+00
   1.4344196248128997e+01   8.6813493347054516e-02   5.0384501433240416e+00
   1.4397301655801201e+01   8.6807867116138859e-02   5.0494474650945067e+00
   1.4157758843578879e+01   1.2760557199346803e-01   5.0463060259044781e+00
   1.4154720016016071e+01   1.0723084719483872e-01   5.0557296258797919e+00
   1.4080653679272459e+01   1.0878098680033550e-01   5.0400227042160948e+00
   1.4068074541374914e+01   9.7803853769250243e-02   5.0478774153054786e+00
   1.3871411039947269e+01   8.9957356774355110e-02   5.0447352041231488e+00
   1.4164049400870008e+01   9.7795206775238966e-02   5.0651569080758314e+00
   1.4194140278649954e+01   8.9943403086501339e-02   5.0714334426546337e+00
   1.3492194402973706e+01   1.2758803540503266e-01   5.0808558884341641e+00
   1.3680706775184715e+01   9.4535740186912756e-02   5.0438074677357516e+00
   1.3474284412262715e+01   9.9435274778496799e-02   5.0488320415043715e+00
   1.2979949006323793e+01   1.2457662486904164e-01   5.0638906580028262e+00
   1.3141782416880178e+01   1.0434356327361628e-01   5.0588745595298938e+00
   1.2862351143879255e+01   1.1352263716418266e-01   5.0384514609940254e+00
   1.3216720858955636e+01   9.9436463419723356e-02   5.0588773210175573e+00
   1.2985894949989508e+01   1.1190339426670495e-01   5.0572977004870854e+00
   1.3759366970051021e+01   1.2602733067079588e-01   5.0651533770002510e+00
   1.3679831882380206e+01   1.2602500668437899e-01   5.0667238356619588e+00
   1.3555370713500572e+01   1.2759083490260192e-01   5.0730084685243257e+00
   1.3694304213819262e+01   9.6221249946799356e-02   5.0682959413247399e+00
   1.3673805544232371e+01   9.7803646461396984e-02   5.0494483350846018e+00
   1.3827344800311916e+01   8.9954155896254842e-02   5.0494486047313831e+00
