   1.1261486520419497e+01   2.3144800882071390e+00   2.1868728712509129e+00
   1.1751385984655130e+01   2.3600027512621016e+00   2.1566824373388176e+00
   1.1564589627869854e+01   2.3798702985471354e+00   2.1667448494346218e+00
   1.1569045201330574e+01   2.3294977343097694e+00   2.1667418324616352e+00
   1.1244379381406606e+01   2.3498291846100781e+00   2.1868725602720867e+00
   1.1012103511123204e+01   2.3195424238343842e+00   2.2019690970404651e+00
   1.1202879252386014e+01   2.2996063921851757e+00   2.1868718296208480e+00
   1.1564357279341943e+01   2.2693593438362480e+00   2.1667424897553200e+00
   1.1945752724065823e+01   2.3294807479963873e+00   2.1466174176869561e+00
   1.1868845943519910e+01   2.3346142752291454e+00   2.1516509630401082e+00
   1.1675458962082390e+01   2.3294989980464145e+00   2.1617123017362632e+00
   1.1784630787994422e+01   2.3046104660836311e+00   2.1566813870900940e+00
   1.2326648466125494e+01   2.2842087330384699e+00   2.1264890952525795e+00
   1.2035470149431596e+01   2.3045905182897166e+00   2.1415866033471298e+00
   1.2134866188564050e+01   2.2842266290714344e+00   2.1365536303649204e+00
   1.2132980263720286e+01   2.2793160975855180e+00   2.1365540169867385e+00
   1.1780790394684093e+01   2.2893342784501414e+00   2.1566801132302271e+00
   1.1593773729438487e+01   2.2996210119948719e+00   2.1667455933814290e+00
   1.1420548820654547e+01   2.2893209453523347e+00   2.1768086593994167e+00
   1.1687594958876783e+01   2.2593007361924125e+00   2.1617137205145007e+00
   1.2050583111513774e+01   2.2643733993026438e+00   2.1415849770260578e+00
   1.1882349528975277e+01   2.2643555809752431e+00   2.1516484524969108e+00
   1.1766224049971427e+01   2.2593010325429397e+00   2.1566798333654793e+00
   1.2029089839633713e+01   2.3295108904190682e+00   2.1415865305972197e+00
   1.1829441460791504e+01   2.3245165956134088e+00   2.1516495232074639e+00
   1.1751271360254345e+01   2.3195400710442682e+00   2.1566826804269432e+00
   1.1931853624201816e+01   2.2996039466741975e+00   2.1466174565301790e+00
   1.2307653382411043e+01   2.2996023214649459e+00   2.1264901007922425e+00
   1.2110532288674062e+01   2.2944985155009676e+00   2.1365519983747916e+00
   1.2025885852996403e+01   2.2693740564688447e+00   2.1415856515853697e+00
   1.2187739565820483e+01   2.2693560627080176e+00   2.1315229952191088e+00
   1.1385531045316201e+01   2.2744269219118483e+00   2.1768073695814092e+00
   1.2018390299332602e+01   2.2541642299827878e+00   2.1415847439341777e+00
   1.1830487007422052e+01   2.2693757364968681e+00   2.1516501571118614e+00
   1.1658214991197022e+01   2.2442595155336371e+00   2.1617116813677084e+00
   1.1922347091228724e+01   2.2291221723771910e+00   2.1466194098118807e+00
   1.0800151891044635e+01   2.0934935706308240e+00   2.2120313201378599e+00
   1.0508056216630647e+01   2.2744491585796811e+00   2.2371913328285653e+00
   1.0866528228669589e+01   2.2996067265222981e+00   2.2120310482877410e+00
   1.0731420655318148e+01   2.2996264748659607e+00   2.2220951027279603e+00
   1.1104611246544428e+01   2.2842315482763111e+00   2.1969344682017167e+00
   1.0953771084970191e+01   2.3095278849347785e+00   2.2069991291043372e+00
   1.0867392781532239e+01   2.2842511544571527e+00   2.2120312592433531e+00
   1.0602455861295015e+01   2.2842326844988663e+00   2.2321585364021903e+00
   1.0453671160646818e+01   2.2643942820285687e+00   2.2422247608550840e+00
   1.0784460569978268e+01   2.2945204884828723e+00   2.2170642006450350e+00
   1.1237009505076561e+01   2.2744466771329552e+00   2.1868710979524106e+00
   1.1011390256879510e+01   2.2842308915057759e+00   2.2019682967622685e+00
   1.0786217981993920e+01   2.2793605507799635e+00   2.2170618393695456e+00
   1.1071363873310009e+01   2.2492213331644426e+00   2.1969358751466732e+00
   1.0488873243865140e+01   2.2492233507313770e+00   2.2371896439165071e+00
   1.1003568609485061e+01   2.2341447082277677e+00   2.2019691394821521e+00
   1.0611611842425683e+01   2.2492225248119615e+00   2.2271310422999862e+00
   1.0549415960473500e+01   2.2442614845769349e+00   2.2321601826131827e+00
   1.0788829296936020e+01   2.2140895174877766e+00   2.2120310902429487e+00
   1.1202020363528581e+01   2.2141248579249133e+00   2.1868727371838661e+00
   1.1503944045702324e+01   2.2341433537806505e+00   2.1717775892504783e+00
   1.1258295153897548e+01   2.2643564142517159e+00   2.1868709222017104e+00
   1.1170742354767565e+01   2.2541647936386409e+00   2.1919069011534806e+00
   1.1331243790185304e+01   2.2341619858753106e+00   2.1818401546286217e+00
   1.1756965849859307e+01   2.2091538009460763e+00   2.1566790361048831e+00
   1.1581451230720180e+01   2.2341455145268938e+00   2.1667443990596404e+00
   1.1397128723298426e+01   2.2491839963632936e+00   2.1768090818144765e+00
   1.1231793970941998e+01   2.2492200985384692e+00   2.1868769585919692e+00
   1.1161422344302316e+01   2.2492220420262314e+00   2.1919059839327097e+00
   1.1295746592816741e+01   2.2190820737979555e+00   2.1818412947993449e+00
   1.1721936743760988e+01   2.2191182950395469e+00   2.1566843419406005e+00
   1.1631376517027295e+01   2.2190812227886636e+00   2.1617147135687684e+00
   1.1452527633371856e+01   2.1938873859555139e+00   2.1717764794384400e+00
   1.1594830690973629e+01   2.1838626848870226e+00   2.1617120708038691e+00
   1.0967733271315728e+01   2.2240983870138997e+00   2.2019654292311337e+00
   1.0950856332245712e+01   2.1888689030667194e+00   2.2019700549899985e+00
   1.1127049335833153e+01   2.1739089877513247e+00   2.1919041005364575e+00
   1.1538642649922304e+01   2.1638257801789740e+00   2.1667455702582807e+00
   1.1295938040308295e+01   2.1788888103621789e+00   2.1818392586891782e+00
   1.1288822814498154e+01   2.1538826412790746e+00   2.1818417636880474e+00
   1.1429343638863477e+01   2.1437135060283898e+00   2.1717751445642959e+00
   1.0135566514815983e+01   2.1789294139111188e+00   2.2623524023349981e+00
   1.0281516604266999e+01   2.2392190127397198e+00   2.2522864858141469e+00
   1.0191891227414715e+01   2.1939323317440298e+00   2.2573246852917648e+00
   1.0659521010530915e+01   2.1888723077070575e+00   2.2220960452723384e+00
   1.0509919097063021e+01   2.1939274938341837e+00   2.2321599083586854e+00
   1.0385771352474499e+01   2.1888905166373673e+00   2.2422252293530534e+00
   1.0573979160441825e+01   2.1539041602702405e+00   2.2271291454078432e+00
   9.9571691024438280e+00   2.1789516598529968e+00   2.2774485185373168e+00
   9.8748480227099176e+00   2.1638681578071837e+00   2.2824796211362015e+00
   9.8824193657136412e+00   2.1437712134351976e+00   2.2824794988374086e+00
   1.0404162288204322e+01   2.1538867313714265e+00   2.2422219025197494e+00
   1.0261245051255136e+01   2.1488422218690619e+00   2.2522882533300312e+00
   1.0186679643003062e+01   2.1187121539072473e+00   2.2573216891066976e+00
   1.0367424709429098e+01   2.1187302237932153e+00   2.2422252964874803e+00
   1.0651235031104610e+01   2.1285602848098351e+00   2.2220945260995619e+00
   1.0889462838338767e+01   2.1488210009393960e+00   2.2070026055997687e+00
   1.0849778627277425e+01   2.1788896204390973e+00   2.2120286751014056e+00
   1.0744001223289814e+01   2.1437345205795730e+00   2.2170656076321071e+00
   1.0882461458506940e+01   2.1187107213177923e+00   2.2070003044749091e+00
   1.1351315888106454e+01   2.1136212374665755e+00   2.1768092695617947e+00
   1.1181573438013185e+01   2.1335877981539557e+00   2.1868732848243351e+00
   1.1023084732098315e+01   2.1187102600393990e+00   2.1969362772753214e+00
   1.1157740492751389e+01   2.1084226255656540e+00   2.1868741168861985e+00
   1.0648767482423683e+01   2.0683673216888208e+00   2.2220946295138377e+00
   1.0474410020348689e+01   2.0934932855055259e+00   2.2371895848073278e+00
   1.1082927049408609e+01   2.0834212261524145e+00   2.1919053614234816e+00
   1.0875559352861719e+01   2.0984151800857176e+00   2.2069981166238812e+00
   1.0781455817456239e+01   2.0783384070650381e+00   2.2120330240449722e+00
   1.0879030605850000e+01   2.0531966762084144e+00   2.2019694675938024e+00
   1.0459097360942291e+01   1.8772111126418347e+00   2.2271258479082641e+00
   1.0304947146639520e+01   1.8822328835556215e+00   2.2371917214930912e+00
   9.8677714901743130e+00   2.0582416212833374e+00   2.2824814611996302e+00
   9.9286597774957031e+00   2.1084780338274784e+00   2.2774467778589833e+00
   1.0309390279707380e+01   2.0884976618432258e+00   2.2472565224644541e+00
   1.0050925782181510e+01   2.0885374447656764e+00   2.2673840402101089e+00
   9.8368132193237248e+00   2.0632963136089870e+00   2.2824796060148080e+00
   1.0731320581389458e+01   1.9778050508564822e+00   2.2120320057613991e+00
   1.0572967903769216e+01   2.0581995454020787e+00   2.2271262902874005e+00
   1.0347849417572958e+01   2.0783605322972996e+00   2.2422254069543515e+00
   1.0344775036040609e+01   2.0482476657023652e+00   2.2422242450785608e+00
   1.0991264675725720e+01   2.0279104598588571e+00   2.1969363033700828e+00
   1.0770419959572422e+01   2.0380927679505607e+00   2.2120341254300149e+00
   1.0688428437462685e+01   2.0230597972600251e+00   2.2170642729973289e+00
   1.0893966160468372e+01   2.0080198327452279e+00   2.2019666983792376e+00
   1.0602523612351259e+01   1.9628386215781128e+00   2.2220968749224070e+00
   1.0564734672364423e+01   1.9677663327543993e+00   2.2220993097964818e+00
   1.0528353834441546e+01   1.9074153026661689e+00   2.2220945215299786e+00
   1.0395286092877001e+01   1.9376496850887333e+00   2.2321602552975759e+00
   1.0344635381559371e+01   1.9023074378077802e+00   2.2371921465087303e+00
   1.0467558566056653e+01   1.9023082791470753e+00   2.2271252283315199e+00
   9.8005585646604345e+00   1.6158787658695635e+00   2.2724153637948765e+00
   9.9359858731128945e+00   1.7667744709864388e+00   2.2673861284144845e+00
   9.9838249018811425e+00   1.8019162043670049e+00   2.2623524243645363e+00
   9.6797722138669151e+00   1.7916558527098232e+00   2.2925438584449389e+00
   9.9140874152035803e+00   1.7769776456528719e+00   2.2673877294571341e+00
   1.0036311301001280e+01   1.8019179377286876e+00   2.2573184049839590e+00
   9.9872677211837075e+00   1.7866767447561251e+00   2.2623526048350673e+00
   1.0221455577775457e+01   1.7818895640162393e+00   2.2422236953455918e+00
   1.0303445163100788e+01   1.7465302379084220e+00   2.2371895559418151e+00
   9.9232693545905537e+00   1.7415776830777316e+00   2.2673834995697391e+00
   1.0012209021896018e+01   1.7012820941845601e+00   2.2573208912772103e+00
   1.0219362146053001e+01   1.7012425969052694e+00   2.2422224870829406e+00
   9.4535970628945787e+00   1.5957513220945425e+00   2.3076431985111721e+00
   9.8156104336664161e+00   1.5957372599493211e+00   2.2724179906150312e+00
   9.8485674481992049e+00   1.6814052196018283e+00   2.2724178123600631e+00
   9.7596487664418028e+00   1.6460801117316419e+00   2.2774503009819460e+00
   1.0125726878747125e+01   1.6663032065019614e+00   2.2472552582158949e+00
   1.0020784404627413e+01   1.6764670915347775e+00   2.2573204356423764e+00
   9.9370442295202661e+00   1.6460502727596193e+00   2.2623508231708986e+00
   1.0122001623416784e+01   1.6361670613620110e+00   2.2472529958109293e+00
   9.5048358014381815e+00   1.5758349256666691e+00   2.3026117306230680e+00
   1.0109380993216794e+01   1.6108566055371221e+00   2.2472564134597754e+00
   9.9974022713024802e+00   1.6108596066935013e+00   2.2573189905043471e+00
   9.8557297788351015e+00   1.5957367468589458e+00   2.2673874202895270e+00
   1.0167531973049506e+01   1.5857921685608687e+00   2.2422247126966237e+00
   6.7506127605841080e+00   2.8877984174900861e+00   1.8598468564402826e+00
   6.9055214406064227e+00   2.9230145117591073e+00   1.8799695418694111e+00
   7.6634242708104052e+00   3.0738915742402777e+00   1.8699082377590313e+00
   8.0863362359875932e+00   3.0940254270829923e+00   1.8548185616754567e+00
   8.1784971734250167e+00   3.1254655048942257e+00   1.8573802378803443e+00
   8.0055377282459297e+00   3.1204667581817636e+00   1.8624076207044333e+00
   7.9693783589902418e+00   3.1039280526980817e+00   1.8598484646259337e+00
   8.3563001613729160e+00   3.0370054149402157e+00   1.8453095956680601e+00
   8.3121012549638138e+00   3.0788775687939389e+00   1.8497888686277557e+00
   7.9186891140464652e+00   3.0435949049686184e+00   1.8598502637528944e+00
   8.0837689069127272e+00   3.0236304605172331e+00   1.8548169397956060e+00
   7.8830187345806815e+00   3.0386033994096304e+00   1.8598510158074189e+00
   7.7512899641814448e+00   3.1405020289124335e+00   1.8724619879820408e+00
   7.5742681751348755e+00   3.1254748377291715e+00   1.8774891634740298e+00
   7.4134186573731284e+00   3.1039072630518030e+00   1.8799698995771188e+00
   7.6086117883086928e+00   3.1241414986730360e+00   1.8699092948065097e+00
   7.6293862864322186e+00   3.0989990606071913e+00   1.8699109850639486e+00
   7.3937446722213096e+00   3.1241408225858547e+00   1.8799705005752447e+00
   7.3771871599919434e+00   3.0940422084661665e+00   1.8799709258432784e+00
   7.6438914154690867e+00   3.0236124325943776e+00   1.8699108086484000e+00
   7.6372916424256712e+00   3.0435985077171459e+00   1.8699096826601016e+00
   7.5188218274621326e+00   3.0687346696123008e+00   1.8749379586263124e+00
   7.5278396408149524e+00   3.0033563064038971e+00   1.8749442792068862e+00
   7.6206437372367040e+00   3.0636154761222167e+00   1.8699085413889018e+00
   7.7326553252485013e+00   3.0083668891310791e+00   1.8648797902106258e+00
   7.3928195810125112e+00   3.0385837767784327e+00   1.8799714206478570e+00
   7.6047023083011602e+00   3.0336103338616707e+00   1.8699083338841429e+00
   7.7682314749848311e+00   3.0033382872208034e+00   1.8648801665788173e+00
   8.3019376723843212e+00   2.9735694401159170e+00   1.8453091576719287e+00
   8.3788918374404382e+00   3.0081028065286053e+00   1.8434269182548131e+00
   8.0425107577732824e+00   2.9932242406797078e+00   1.8548163248953109e+00
   8.2515979767496557e+00   2.9930440445197650e+00   1.8415385980590437e+00
   8.2496287020232622e+00   2.9654254226167760e+00   1.8421654740054052e+00
   8.0092596754319310e+00   2.9834175665055760e+00   1.8548215943336104e+00
   8.1154582520050589e+00   2.9597534781737473e+00   1.8446820012140734e+00
   8.1933735007594404e+00   2.9289707072686997e+00   1.8207900229992782e+00
   7.9507694790208197e+00   2.9314937293672223e+00   1.8308483597026464e+00
   7.6355614031172596e+00   2.9982559211733122e+00   1.8699125408548172e+00
   7.7678024558165095e+00   2.9932248441912210e+00   1.8598475196569364e+00
   7.8929670609348168e+00   2.9434410520194900e+00   1.8440511858519115e+00
   7.6676917755126937e+00   2.9783586079816691e+00   1.8648799967081011e+00
   7.4962489909640801e+00   2.9381398953548632e+00   1.8598492439182668e+00
   7.8743045224960664e+00   2.9377760533512460e+00   1.8402818627943747e+00
   7.6160239812580039e+00   2.9330738793907649e+00   1.8497861138505862e+00
   6.7385745840058044e+00   3.1105370180296554e+00   1.9126720783879347e+00
   7.2901417438092384e+00   3.0788744324680732e+00   1.8850017910006511e+00
   7.1699180142233843e+00   3.1341758012207768e+00   1.8900296748359304e+00
   6.9858452190638323e+00   3.1105353738567514e+00   1.9026213394342162e+00
   7.1623076640234462e+00   3.1090092838287000e+00   1.8900309133852060e+00
   7.1405241377252553e+00   3.0838293989179655e+00   1.8900309930274872e+00
   6.9244720660905976e+00   3.1039259203748775e+00   1.9000919378314889e+00
   6.9275924064949148e+00   3.0838457975598725e+00   1.9000916258790326e+00
   7.2938634029048695e+00   3.0486735895178816e+00   1.8850030568017744e+00
   7.1490624027884948e+00   3.0536720793603616e+00   1.8900319286692604e+00
   7.3835119553186885e+00   3.0236277781513468e+00   1.8799705759238345e+00
   6.9058938124486833e+00   3.0636394904150164e+00   1.9000912908182919e+00
   6.9817738708397741e+00   2.9982771348803601e+00   1.8950650790296573e+00
   6.6257841876262464e+00   3.1204798160843161e+00   1.9177026926131171e+00
   6.8103234819278589e+00   3.1142013404806699e+00   1.9051232754724716e+00
   6.6748824163550626e+00   3.0989976035789257e+00   1.9101531024283052e+00
   6.5881370778700417e+00   3.1341591405577329e+00   1.9151839571449725e+00
   6.5822904632168129e+00   3.0788569181193277e+00   1.9151823328106032e+00
   6.8518926460464193e+00   2.9882882970585940e+00   1.9000923208874354e+00
   6.6844461730457523e+00   3.0285749303318257e+00   1.9101515811026950e+00
   6.4489691571327121e+00   3.0385875042700605e+00   1.9202190695536021e+00
   6.6515107384709236e+00   2.9883047240032332e+00   1.9101527801529101e+00
   6.7772414605075122e+00   2.9581215080122600e+00   1.9000925502783241e+00
   7.4471255732191066e+00   2.9581036134425585e+00   1.8699104997900777e+00
   7.2383867223534004e+00   2.9783776356739020e+00   1.8799703678842161e+00
   6.9464927927865867e+00   2.9834139560589579e+00   1.8950620577621902e+00
   6.9959121755571658e+00   2.9230112133990285e+00   1.8749397577244633e+00
   7.2315433329862593e+00   2.9077866979960523e+00   1.8548181593037831e+00
   7.0248691542195285e+00   2.9077910653128676e+00   1.8648785809771802e+00
   6.6100700217430370e+00   2.9229927067210393e+00   1.9000895802507731e+00
   6.6649225748890739e+00   2.9631935471204800e+00   1.9051251659980069e+00
   6.8072844820534719e+00   2.8928676181608783e+00   1.8699068754600821e+00
   6.7569969530736067e+00   2.8928718160620153e+00   1.8749422988288651e+00
   5.5675174166647201e+00   2.8676369641377026e+00   1.9453667454008392e+00
   5.9072923736492005e+00   3.0838294435619620e+00   1.9503979438573982e+00
   6.3567351496205973e+00   3.0738698329522141e+00   1.9252449253860466e+00
   6.1851137434509642e+00   3.1039222652709593e+00   1.9353063842788467e+00
   6.1144967029603512e+00   3.1405024500921321e+00   1.9428383964183733e+00
   6.0906974319243599e+00   3.0838114375069550e+00   1.9403358287000818e+00
   6.2986769512063407e+00   2.9834131707589733e+00   1.9252463558758168e+00
   6.3438909876738894e+00   3.0436105945068408e+00   1.9252452389531265e+00
   6.1247138545895341e+00   3.0335985369291119e+00   1.9353039468201501e+00
   6.0100365590868909e+00   2.9631913200711959e+00   1.9403393229253749e+00
   5.7234409886675683e+00   3.1039121794219824e+00   1.9604608622365902e+00
   5.8172454245662522e+00   2.9581046240344273e+00   1.9503999685795101e+00
   5.8615611117914650e+00   3.0385704174926720e+00   1.9503993656854328e+00
   5.7522262900205865e+00   2.9631983662940322e+00   1.9554284901805037e+00
   5.9691065306497091e+00   2.9077871914105633e+00   1.9353079538890776e+00
   6.3452319493430656e+00   2.9179188861108116e+00   1.9151854153116343e+00
   6.2651170064522335e+00   2.9431560767500469e+00   1.9252447910407471e+00
   6.2010785419190588e+00   2.9280061265857817e+00   1.9252463442210910e+00
   6.1106299701240303e+00   2.9179292565416719e+00   1.9302762640890312e+00
   6.3097777746774097e+00   2.8828020807044195e+00   1.8950594827213814e+00
   6.1948127136981306e+00   2.8777810609079744e+00   1.9000906986449710e+00
   5.9936036186546398e+00   2.9330824172529963e+00   1.9403365321780273e+00
   5.7727361532357424e+00   2.9179207710128199e+00   1.9554276166967619e+00
   5.6960515058097032e+00   2.8928708960837635e+00   1.9503974531904551e+00
   6.0093939587742957e+00   2.8726690487691044e+00   1.9101533160710178e+00
   4.7423826632373309e+00   3.1355792521496357e+00   2.0081890279139705e+00
   4.9370155384103258e+00   3.1404939214185572e+00   1.9880806074723951e+00
   4.6912653610897985e+00   3.1105378750129380e+00   2.0132182802473699e+00
   6.6753693947376425e+00   2.8475760942495665e+00   1.8548177358104947e+00
   7.9220298474540600e+00   2.9094842286458920e+00   1.8163861277538760e+00
   8.2697565063768348e+00   2.9038432508530718e+00   1.8050713880000138e+00
   8.3668476116417949e+00   2.9308344473663848e+00   1.8056992664824256e+00
   7.9612871969787644e+00   2.9183065688886769e+00   1.8157588359994152e+00
   8.1719301964966640e+00   2.9094783852342498e+00   1.8082136140367704e+00
   7.9153840518600873e+00   2.9208001037448788e+00   1.8182744393318708e+00
   7.5078784921742034e+00   2.8982051763005665e+00   1.8289629260385483e+00
   7.6029797868460101e+00   2.8919250252974740e+00   1.8251885636310425e+00
   6.6907927943610686e+00   2.8878114145290321e+00   1.8648790365202901e+00
   7.2883462624064448e+00   2.8699672312399347e+00   1.8339924504712768e+00
   7.2859072584718643e+00   2.9057663553329953e+00   1.8421647954386031e+00
   7.0842806433694454e+00   2.8957147375410703e+00   1.8453094629834919e+00
   7.0863762364645169e+00   2.8630269131492394e+00   1.8415370982329784e+00
   8.3022274842310235e+00   2.8900129342440790e+00   1.8006709808071608e+00
   8.1811396918012598e+00   2.8875111199971659e+00   1.8038100653726161e+00
   4.9156345638220511e+00   2.8072938109242340e+00   1.9755581264581927e+00
   5.6696000646155804e+00   2.8576024334181844e+00   1.9302758477711000e+00
   6.3291084189217361e+00   2.8324782381594140e+00   1.8699075888834027e+00
   6.3928129064782580e+00   2.8777597636109489e+00   1.8799689538274467e+00
   6.2747067351602972e+00   2.8777788109780489e+00   1.8950601550691069e+00
   6.1670444247507250e+00   2.8225221372184444e+00   1.8749390818010470e+00
   5.9901437219986633e+00   2.8122851445960810e+00   1.8850043537916961e+00
   5.8866303513800666e+00   2.8275040527265753e+00   1.8950636372817244e+00
   5.7880297944538945e+00   2.8225450598120405e+00   1.9000929967194389e+00
   5.6894435869585704e+00   2.7974624503762051e+00   1.9000910590455049e+00
   4.8826151100353989e+00   3.0536557627348198e+00   1.9856167865699725e+00
   5.0463251486278606e+00   3.0738851197377617e+00   1.9705210455882671e+00
   5.0568097146682316e+00   3.1404745168298369e+00   1.9730007389289981e+00
   5.0731216723877219e+00   2.9330692812690575e+00   1.9654933517402235e+00
   5.0986377058145642e+00   2.9883119969827647e+00   1.9654900281831926e+00
   4.8060929950792675e+00   3.1090012892280279e+00   1.9956759654675105e+00
   4.6562735899891017e+00   3.1192540191158877e+00   2.0107676802581462e+00
   4.7011278827672829e+00   3.0536759618746880e+00   2.0057367054419597e+00
   4.9234105904478449e+00   2.9631931258053426e+00   1.9805849721029098e+00
   4.9366832343826763e+00   3.0285783469663476e+00   1.9805831993764358e+00
   4.6393756167029636e+00   2.9982892229051941e+00   2.0057411519426438e+00
   4.6127350114076568e+00   2.9581239224136273e+00   2.0057400272580681e+00
   4.9012965274988209e+00   2.8828121860864915e+00   1.9805831002366550e+00
   5.3450313283199753e+00   2.8526187747233971e+00   1.9453688764304728e+00
   5.0220829373440266e+00   2.9128685895293525e+00   1.9654939664074014e+00
   5.2882101887812665e+00   2.8626106598935368e+00   1.9503979842072945e+00
   5.6006958570973122e+00   2.8023759032855655e+00   1.9101534599730501e+00
   5.3367571411328987e+00   2.8275017638166031e+00   1.9302746141191001e+00
   5.2930937083061362e+00   2.8174094813831823e+00   1.9302764670277990e+00
   5.2026567304119729e+00   2.7671691315446356e+00   1.9302733073381491e+00
   4.8171329662773479e+00   2.8425310776683519e+00   1.9856154214679840e+00
   4.7616520962525186e+00   2.9078023400061754e+00   1.9906469655886625e+00
   5.0088029586160605e+00   2.7521283874050551e+00   1.9453691919173188e+00
   5.0802478011496648e+00   2.7974733883398946e+00   1.9453656206737333e+00
   4.8428022395474715e+00   2.7974630702256826e+00   1.9705234996120546e+00
   4.9233208664909300e+00   2.7471351090909475e+00   1.9554252913468935e+00
   3.3801522191229791e+00   2.6162128767480821e+00   2.1516484776848426e+00
   3.8849046074824027e+00   3.1155280926208140e+00   2.1137726870548392e+00
   3.7844338651273848e+00   3.1105071416009036e+00   2.1288557417602574e+00
   4.4180984064615405e+00   3.1404639896273485e+00   2.0433790673394765e+00
   4.2305263728574012e+00   3.1204468348975554e+00   2.0634927478966478e+00
   2.4632042950033601e+00   2.9737351808939700e+00   2.5190149339611394e+00
   2.6182236843741982e+00   3.0338735464701085e+00   2.4435247093329067e+00
   3.2938952650553417e+00   2.6868398838202570e+00   2.1969325488752518e+00
   3.8820517012035016e+00   3.0336317185126269e+00   2.1063640715813299e+00
   4.3341088576235602e+00   3.0636460883227312e+00   2.0459884299962594e+00
   4.2605593616720094e+00   3.1039339905869356e+00   2.0560485475033889e+00
   4.1443596454937399e+00   3.0838333520609309e+00   2.0711433870961082e+00
   4.2128668887737240e+00   3.0536648592593854e+00   2.0610827989148861e+00
   4.4526141796596299e+00   2.9481834842243777e+00   2.0258613016965095e+00
   4.3885649406976990e+00   3.0033734623369295e+00   2.0409555902760399e+00
   4.0854877986231948e+00   2.9381698830372418e+00   2.0761771807967548e+00
   4.1560045653671995e+00   2.9179579703149221e+00   2.0661119785293645e+00
   3.9220692947867457e+00   3.0990409518144322e+00   2.1013301605368646e+00
   3.7685280930157599e+00   3.0789005594702696e+00   2.1264900312500661e+00
   3.7983754271794932e+00   3.0586013035265425e+00   2.1214575281579364e+00
   4.0807495190353205e+00   2.8626238227632381e+00   2.0711430215889797e+00
   4.0189698059601042e+00   2.9683240360667980e+00   2.0862396228683506e+00
   3.7541134940694056e+00   2.9683289574383847e+00   2.1264916532834608e+00
   3.7949076064922846e+00   2.8929074021961401e+00   2.1164303972995189e+00
   4.0620485183101884e+00   2.7420895900411866e+00   2.0661148302137571e+00
   4.5306941182699587e+00   2.7721895436602777e+00   1.9956751129230499e+00
   4.5841810864229613e+00   2.8425183450142422e+00   2.0107686865985794e+00
   4.3135920371094434e+00   2.8676264430874827e+00   2.0409552899555283e+00
   4.4349452067511494e+00   2.7873206479212662e+00   2.0208303052004442e+00
   4.7269596835065135e+00   2.7218581214759414e+00   1.9654913257193136e+00
   4.5424233100291307e+00   2.7116625972368378e+00   1.9856146246156716e+00
   4.4469503793640426e+00   2.7570509231678884e+00   2.0007060857934738e+00
   4.3879063619209102e+00   2.6867853380649822e+00   1.9956727593034989e+00
   4.0315588841949213e+00   2.8073284372619307e+00   2.0761820519699645e+00
   3.8810817235433217e+00   2.7974947917953301e+00   2.0963015137371617e+00
   3.9595788082256931e+00   2.7671839037912362e+00   2.0812089444704736e+00
   4.3003053070864627e+00   2.6716547635056678e+00   2.0057380209008868e+00
   4.1520075281011959e+00   2.7018056097448029e+00   2.0308950057322459e+00
   4.0559713802158424e+00   2.6716474395651391e+00   2.0409581585624306e+00
   4.0160976405632871e+00   2.6314593097900874e+00   2.0359262160951737e+00
   3.0929442883370855e+00   2.9482618406120893e+00   2.2623542693096894e+00
   3.4449817024276048e+00   3.0436357548382809e+00   2.1818372236296102e+00
   3.4440657508378090e+00   3.0636691706996042e+00   2.1818395279014711e+00
   3.3619780528827072e+00   3.0838872397475456e+00   2.2019671456066106e+00
   3.3209436488862618e+00   2.9683592206327600e+00   2.2070011945417995e+00
   3.5562061473601330e+00   2.8275450135460560e+00   2.1516521031204912e+00
   3.6317567193012805e+00   2.9482093505450173e+00   2.1466198921106825e+00
   3.4224475165067174e+00   2.9331092929648208e+00   2.1818441159843847e+00
   3.4956300900023733e+00   2.8123586709848367e+00   2.1617132961738887e+00
   3.0271125142400965e+00   3.0386952230632227e+00   2.2824797880818526e+00
   2.9074342705811937e+00   3.0437310594696219e+00   2.3177054043580392e+00
   2.8729228435795142e+00   2.9684475481123864e+00   2.3277742681212201e+00
   3.1814266743124850e+00   2.8123887362578808e+00   2.2321652513812502e+00
   3.2077431416472550e+00   2.8929547920544247e+00   2.2321575425577080e+00
   3.0327149663535806e+00   2.8929475243139962e+00   2.2774422924377968e+00
   3.0766406260908989e+00   2.7874005962271631e+00   2.2573260736137692e+00
   3.2189882229107329e+00   2.5510635704171172e+00   2.1717743646189516e+00
   3.8079767908926385e+00   2.7018209337472134e+00   2.1013274529833348e+00
   3.5829474609953462e+00   2.7521812614452728e+00   2.1415900747797920e+00
   3.5074325759933007e+00   2.7873397549635892e+00   2.1566771350035934e+00
   3.4912095443038074e+00   2.6265238103083384e+00   2.1214638456949828e+00
   3.7140114490481850e+00   2.6565579280377509e+00   2.0862369168683941e+00
   3.5034271211665016e+00   2.5712086825511635e+00   2.1164273152681679e+00
   3.0553025827881597e+00   2.6265455510199116e+00   2.2522894289093811e+00
   3.4158934857669379e+00   2.5309959395182826e+00   2.1315215885684351e+00
   3.2325293171598619e+00   2.4803604213147592e+00   2.1667476997135728e+00
   2.3488034476445661e+00   1.8171195213234190e+00   2.4334627204873427e+00
   2.4232390208885710e+00   2.9385641124755701e+00   2.5190120394100282e+00
   2.7986757892932150e+00   2.9684598325884677e+00   2.3529280903014356e+00
   2.7387318474743014e+00   3.0237864660783909e+00   2.3730698582823200e+00
   2.5069422225322624e+00   2.9837194387247044e+00   2.4737225878981119e+00
   2.5225734092854464e+00   2.8377822374424602e+00   2.4636459388589707e+00
   2.8623473080010746e+00   2.6666422350971839e+00   2.3126712881803346e+00
   2.8401441081082490e+00   2.8527583561873686e+00   2.3328062821022382e+00
   2.6289171972707699e+00   2.7473453183951015e+00   2.4082899448167301e+00
   2.6873667872692777e+00   2.6466035236676659e+00   2.3780999415136721e+00
   2.4603076607694820e+00   2.9737035749650675e+00   2.4988776793369625e+00
   2.1921422510615045e+00   2.9638304270663647e+00   2.6196687560805310e+00
   2.2153164910544949e+00   2.8232698472819440e+00   2.6448345022536666e+00
   2.0256251617633998e+00   2.9638342522178145e+00   2.6096022150034597e+00
   2.4946761895252054e+00   2.4857172630263324e+00   2.4334485779169519e+00
   2.4387608245100627e+00   2.6114202842849568e+00   2.4938454738967009e+00
   2.2898132488037097e+00   2.5314734466954452e+00   2.5743769788464603e+00
   2.3864456950356110e+00   2.3703513131706870e+00   2.5039167227203882e+00
   2.7350519322042133e+00   2.3347299015764831e+00   2.2925492705548947e+00
   2.9244584276800722e+00   2.4402993174242815e+00   2.2371837814226239e+00
   2.9403729767083973e+00   2.6515781474805662e+00   2.2875110395110694e+00
   2.7732206463844524e+00   2.5610489886115682e+00   2.3378373131231349e+00
   2.7831029704906718e+00   2.3601094464868662e+00   2.2774525484578279e+00
   3.0298564762486691e+00   2.4454114265653475e+00   2.2120344424472269e+00
   2.9072957395390651e+00   2.3295556446952195e+00   2.2271228592778480e+00
   2.5527947766547943e+00   2.4052666778023877e+00   2.4082943415036118e+00
   2.4728867631424212e+00   2.2895850621066711e+00   2.4485589581061626e+00
   2.5736052176899626e+00   2.2997747695999089e+00   2.3579711403405432e+00
   2.7727066012986299e+00   2.2443311298297681e+00   2.2623564846325035e+00
   2.6309976953038179e+00   2.1890002011009342e+00   2.3227429522386922e+00
   2.1030233344314087e+00   2.0992110495867009e+00   2.6649666566997516e+00
   2.1890882366483084e+00   2.8634844299887776e+00   2.6700098464643203e+00
   2.1914633818200113e+00   2.9489942531233182e+00   2.6699988992562282e+00
   1.9776435063061797e+00   2.9638208705115696e+00   2.6045731819678051e+00
   2.2942051364306986e+00   2.4654581514216725e+00   2.5492125515255148e+00
   2.1875953829138512e+00   2.6221684609942724e+00   2.6599312560272668e+00
   2.1709849893225885e+00   2.4311293056117660e+00   2.6901322560129000e+00
   2.2287457448318326e+00   2.2799232715020064e+00   2.6045754614601990e+00
   2.1366063100407620e+00   1.6569077369409488e+00   2.6700104050206130e+00
   2.2118141713048587e+00   1.9983987097017382e+00   2.6096053112105602e+00
   2.4472483524646615e+00   2.1740976025989043e+00   2.3982264534224034e+00
   2.3909834356327107e+00   2.2845724214120868e+00   2.4888166531017033e+00
   2.2891817171439230e+00   2.0333468014282934e+00   2.5441829535378111e+00
   2.3401358882139731e+00   1.9479259402300975e+00   2.5089563584675680e+00
   2.5288877928804987e+00   2.0633906857788498e+00   2.3478998835914879e+00
   2.4497476776298819e+00   1.8823863424203053e+00   2.3680275135794169e+00
   2.2908523648524364e+00   1.7319795210202855e+00   2.5341151248678089e+00
   2.1794673894178822e+00   1.5864310593405242e+00   2.6146357271227272e+00
   2.4209965908548901e+00   1.8723838899329368e+00   2.3982315832013579e+00
   2.3359517784847359e+00   1.6866589793423050e+00   2.4384967453528295e+00
   2.3871479382912155e+00   1.7317552013494093e+00   2.3931933836686463e+00
   2.3663220262722060e+00   1.5810010227500577e+00   2.3982311514199450e+00
   1.3130262126201366e+01   2.1638017795701163e+00   2.0862401779285804e+00
   1.2984892133391558e+01   2.1838211445800675e+00   2.0912716977670205e+00
   1.2912137983634585e+01   2.1487990608040066e+00   2.0963011381585357e+00
   1.3053721500743954e+01   2.2944791027245413e+00   2.0912673414404113e+00
   1.3324166702365067e+01   2.3245107107903968e+00   2.0812063961068397e+00
   1.3117651814011607e+01   2.3447662409159857e+00   2.0912706952670241e+00
   1.2967807385929705e+01   2.3294896899979460e+00   2.0963035857606860e+00
   1.3211931299870962e+01   2.3094970271916715e+00   2.0862371804288045e+00
   1.3568394581926448e+01   2.2995822940706594e+00   2.0711437172294471e+00
   1.3490965027126006e+01   2.3144570693034243e+00   2.0761757824043965e+00
   1.3218855981967161e+01   2.2893304439187534e+00   2.0862402840769572e+00
   1.3437021261351825e+01   2.2792929363163750e+00   2.0761752131855538e+00
   1.2968647111014047e+01   2.2842076191154188e+00   2.0962987501561399e+00
   1.2643613813590797e+01   2.3095004044266187e+00   2.1113955447337451e+00
   1.2630760167614378e+01   2.2792977544092201e+00   2.1113949100875455e+00
   1.2737913269747443e+01   2.2841907421096841e+00   2.1063643219476216e+00
   1.3322824340733012e+01   2.2592825029191901e+00   2.0812076684579299e+00
   1.3080448621893249e+01   2.2793124933430389e+00   2.0912713861533634e+00
   1.2972978412426423e+01   2.2592989727363815e+00   2.0963009076514822e+00
   1.3072390873810729e+01   2.2592984911249263e+00   2.0912721846855544e+00
   1.3169938114559271e+01   2.3294895227372185e+00   2.0862378974975564e+00
   1.3070291702531355e+01   2.3294903974735921e+00   2.0912673258846017e+00
   1.2930373649563302e+01   2.3195357369958609e+00   2.0963017713294247e+00
   1.3027447677805387e+01   2.3195342653563640e+00   2.0912704097142707e+00
   1.3417336640428196e+01   2.2944765681858050e+00   2.0761759876829151e+00
   1.3424820413288998e+01   2.3195167395001408e+00   2.0761766524408438e+00
   1.3180698497311703e+01   2.3045690551085705e+00   2.0862385080428063e+00
   1.3402702528640148e+01   2.2693694557863955e+00   2.0761737667120372e+00
   1.2713503807896151e+01   2.3195346125902594e+00   2.1063648588877353e+00
   1.2587965741355909e+01   2.2945143832356711e+00   2.1113968671036680e+00
   1.2840015244745389e+01   2.2841911120043101e+00   2.1013324236376496e+00
   1.3287855342394762e+01   2.2541651326687449e+00   2.0812097920689330e+00
   1.3052177474262178e+01   2.2744066570461876e+00   2.0912705053018139e+00
   1.2898622722242093e+01   2.2693545298325932e+00   2.0963015797806532e+00
   1.3172435944544842e+01   2.2491790465862129e+00   2.0862370050719719e+00
   1.3544232733357324e+01   2.2442216093684513e+00   2.0711457512921765e+00
   1.3942754318151524e+01   2.2693514834727213e+00   2.0560511823968404e+00
   1.3712119227217432e+01   2.2841888825452155e+00   2.0661147103669313e+00
   1.3558612204292922e+01   2.2744196577868081e+00   2.0711431207264495e+00
   1.3716153909044948e+01   2.2643338529587034e+00   2.0661125780780862e+00
   1.4252986522444129e+01   2.2341243560620345e+00   2.0459872838194606e+00
   1.4113535938289667e+01   2.2541637109619934e+00   2.0510240017327699e+00
   1.3981458943866052e+01   2.2341240592386029e+00   2.0560497960100497e+00
   1.4076120003816998e+01   2.2240725734648650e+00   2.0510201131443719e+00
   1.3550639248456843e+01   2.2491772945156736e+00   2.0711465577734982e+00
   1.3310210060418280e+01   2.2341414074354473e+00   2.0812075421069602e+00
   1.3707470130965342e+01   2.2341418396371120e+00   2.0661132817095345e+00
   1.3585880119723161e+01   2.2091144461686412e+00   2.0711491412210403e+00
   1.3806439954765384e+01   2.1989886621574319e+00   2.0610866932278697e+00
   1.3801301805994607e+01   2.2693521104878576e+00   2.0610799142017782e+00
   1.3664801019235698e+01   2.2944918155914715e+00   2.0661121237552038e+00
   1.3533403555647782e+01   2.2592816599162848e+00   2.0711438231802126e+00
   1.3773777722203375e+01   2.2442199998459773e+00   2.0610816780500016e+00
   1.4192551296502860e+01   2.2391784560214560e+00   2.0459897096979756e+00
   1.3785551665851971e+01   2.2391789419291914e+00   2.0610875089690746e+00
   1.4067080834886710e+01   2.2391791427473384e+00   2.0510197038876576e+00
   1.3403652358304768e+01   2.2491786339653768e+00   2.0761788103059784e+00
   1.3236740936769934e+01   2.2240574363368326e+00   2.0812052319499719e+00
   1.3536151926674510e+01   2.2240568373822782e+00   2.0711432778065046e+00
   1.3905454702944525e+01   2.2190757582654665e+00   2.0560539304604166e+00
   1.3671798601231002e+01   2.2190785742630119e+00   2.0661146994849364e+00
   1.3657683949370625e+01   2.1989888395140813e+00   2.0661168515996717e+00
   1.3761364100366867e+01   2.1888261228311676e+00   2.0610804669556964e+00
   1.2373105518183259e+01   2.2291025425541959e+00   2.1214594796910635e+00
   1.2427601996447665e+01   2.2643534221431185e+00   2.1214584016757279e+00
   1.2224363377475042e+01   2.2541646923701295e+00   2.1315252549368955e+00
   1.3080763299592689e+01   2.2341267659154811e+00   2.0912709907925069e+00
   1.2846756663842395e+01   2.2541640538515226e+00   2.1013385486761225e+00
   1.2730409793955337e+01   2.2593160023793306e+00   2.1063656231759706e+00
   1.2503077749095739e+01   2.2842087022098427e+00   2.1164249054482589e+00
   1.2404709067800260e+01   2.2592990742142876e+00   2.1214598925807646e+00
   1.2491310836605781e+01   2.2442408628081836e+00   2.1164280432373479e+00
   1.2930542156072111e+01   2.2391791128723986e+00   2.0963024390186411e+00
   1.2822561844494727e+01   2.2291023722183354e+00   2.1013307371447567e+00
   1.2675851316307003e+01   2.2140844082786266e+00   2.1063666200007551e+00
   1.2785401873376722e+01   2.2140840302696247e+00   2.1013366073567519e+00
   1.2199655062537792e+01   2.2240756679190370e+00   2.1315210901952328e+00
   1.2090777779432472e+01   2.2291217156427932e+00   2.1365549847692655e+00
   1.2104523351102017e+01   2.1989917505156282e+00   2.1365595449824659e+00
   1.2703004260354989e+01   2.2040966418560162e+00   2.1063636903563223e+00
   1.2557713168491388e+01   2.2140840241507509e+00   2.1113945002858139e+00
   1.2378953551040654e+01   2.2041156075537338e+00   2.1214616602048997e+00
   1.2695349512611537e+01   2.1738995974239534e+00   2.1063637306655791e+00
   1.2698689592671560e+01   2.1688480124525933e+00   2.1063641390701049e+00
   1.3081190313892618e+01   2.2091154226032312e+00   2.0912684045981176e+00
   1.3695112151403690e+01   2.1788663082056976e+00   2.0661119436893918e+00
   1.3570868495436317e+01   2.1538617955091595e+00   2.0711439850104845e+00
   1.3439287994035993e+01   2.1538623252840248e+00   2.0761779843074839e+00
   1.3426791025519016e+01   2.1235454598299173e+00   2.0761786056830660e+00
   1.3410326781350781e+01   2.2041122787790330e+00   2.0761739211008865e+00
   1.3177874727520747e+01   2.2091143656443033e+00   2.0862400684799827e+00
   1.2897312218411283e+01   2.1938846485716059e+00   2.0963030509935345e+00
   1.3237713013355215e+01   2.1888430035603141e+00   2.0812089640409459e+00
   1.3639495691095107e+01   2.1888265082767444e+00   2.0661150289679733e+00
   1.3542426581306801e+01   2.1989893908950009e+00   2.0711468006845806e+00
   1.3300054454204952e+01   2.1788848790432644e+00   2.0812063684773396e+00
   1.3645800302058468e+01   2.1638160650746654e+00   2.0661119756390489e+00
   1.3532494880103004e+01   2.1437092277854530e+00   2.0711445743698254e+00
   1.3153431301309405e+01   2.1588619790248078e+00   2.0812069393512589e+00
   1.3246771960197888e+01   2.1385919014973398e+00   2.0812089092129185e+00
   1.3267475360879930e+01   2.1186728614093617e+00   2.0812078395283411e+00
   1.4563235821480610e+01   2.0733300184698051e+00   2.0409596273332689e+00
   1.4204134200788198e+01   2.1838193349236517e+00   2.0459881816903809e+00
   1.4563318505629340e+01   2.2240555362207104e+00   2.0359259243328314e+00
   1.4391607835796041e+01   2.2290807634231253e+00   2.0409568173511241e+00
   1.4242141919997497e+01   2.2240553954329498e+00   2.0459886652859991e+00
   1.4387380814081380e+01   2.1989867648285841e+00   2.0409586078136650e+00
   1.4945538153271363e+01   2.2091109861560914e+00   2.0258650968509073e+00
   1.4754459610158483e+01   2.2040938254108458e+00   2.0308957626914128e+00
   1.4600188831966044e+01   2.2040943125295036e+00   2.0359261721781601e+00
   1.4733136870007657e+01   2.1888212178273747e+00   2.0308916789129303e+00
   1.4377665459090569e+01   2.1938814002410512e+00   2.0409591817612469e+00
   1.4083139675988056e+01   2.1938818083772431e+00   2.0510194781088771e+00
   1.3967689554077975e+01   2.1788830960360785e+00   2.0560484598973749e+00
   1.4261815995614091e+01   2.1688274462147237e+00   2.0459863725157983e+00
   1.4747781984091608e+01   2.1638107795643733e+00   2.0308938037607596e+00
   1.4419682488709451e+01   2.1738769436964716e+00   2.0409549782148209e+00
   1.4398337162195537e+01   2.1588599489161053e+00   2.0409594207631274e+00
   1.4465112909797352e+01   2.1538608407200406e+00   2.0409564329399226e+00
   1.4045833493332497e+01   2.1989882825945242e+00   2.0510188842328900e+00
   1.3894537235412555e+01   2.1838197719431967e+00   2.0560535482540891e+00
   1.5217473069515089e+01   2.1487785397712305e+00   2.0208333055891883e+00
   1.5456567721505994e+01   2.1788789668108093e+00   2.0158025356952733e+00
   1.5085524379116888e+01   2.1838173562289791e+00   2.0208306204243764e+00
   1.4968720634470568e+01   2.1738923859011141e+00   2.0258653750980513e+00
   1.5168342422743693e+01   2.1588748571900189e+00   2.0208340212059315e+00
   1.5854912478208952e+01   2.1538422919683544e+00   2.0107720016980188e+00
   1.5684136548589757e+01   2.1487784843624000e+00   2.0158004822217586e+00
   1.5374930772728995e+01   2.1637931962677959e+00   2.0158015070860440e+00
   1.5808671237850827e+01   2.1588566377078844e+00   2.0107706699222248e+00
   1.5335433957149858e+01   2.1588738286075175e+00   2.0157995492759420e+00
   1.5606054891285018e+01   2.1335452665698957e+00   2.0158012743152818e+00
   1.4957085494703506e+01   2.1588748382265215e+00   2.0258644020426573e+00
   1.4849361126729358e+01   2.1437060532642018e+00   2.0308961532074035e+00
   1.4805396460844674e+01   2.1285242492965653e+00   2.0308931351172785e+00
   1.5457391479565173e+01   2.1235596951961071e+00   2.0208315648640864e+00
   1.5361515745328290e+01   2.1335457226923111e+00   2.0208306743249986e+00
   1.5182978729861309e+01   2.1235599685949040e+00   2.0258657675990865e+00
   1.5398109631735254e+01   2.1033192473268172e+00   2.0208315245900415e+00
   1.3781820185198544e+01   2.1335485050599190e+00   2.0610814299869578e+00
   1.4125048319189707e+01   2.1538454220567420e+00   2.0510184536840828e+00
   1.3941723313514222e+01   2.1738964605815649e+00   2.0560506062986441e+00
   1.3676507633017646e+01   2.1538620201936647e+00   2.0661138469587317e+00
   1.3959810146776425e+01   2.1487806093912081e+00   2.0560519586127257e+00
   1.4433902894634874e+01   2.1285430806618404e+00   2.0409571356840517e+00
   1.4092879568567740e+01   2.1436920149050303e+00   2.0510208696514791e+00
   1.4073063665032501e+01   2.1335467804609030e+00   2.0510183473203942e+00
   1.4310080970836923e+01   2.1135906977646637e+00   2.0459874267328102e+00
   1.3820555050332638e+01   2.1186545289528382e+00   2.0610822195273704e+00
   1.3684540314388277e+01   2.0983580226822616e+00   2.0661110211824552e+00
   1.4071740795633957e+01   2.1033195373644071e+00   2.0510208420127842e+00
   1.4132066906604321e+01   2.1135889403644241e+00   2.0510178616549788e+00
   1.3812554631761389e+01   2.0983581782392586e+00   2.0610833866666129e+00
   1.4125173596156367e+01   2.0884478244898288e+00   2.0510211776933813e+00
   1.4059631896091235e+01   2.1588752888514997e+00   2.0510191618091254e+00
   1.3933152710731658e+01   2.1638140073549392e+00   2.0560505750224025e+00
   1.3797134330598148e+01   2.1437075278929498e+00   2.0610831482731369e+00
   1.3931115597012788e+01   2.1335462874392626e+00   2.0560509140360268e+00
   1.4058906422490940e+01   2.1285422006078587e+00   2.0510215800185296e+00
   1.3523727876674574e+01   2.1385899164803690e+00   2.0711440522381963e+00
   1.3547268666394935e+01   2.1235631537144162e+00   2.0711439480229532e+00
   1.3633388276491910e+01   2.1033373856610806e+00   2.0661127720007153e+00
   1.3914114402787911e+01   2.1084075833727312e+00   2.0560505019189894e+00
   1.3907855123880354e+01   2.1033202613075437e+00   2.0560497325930349e+00
   1.4508493431612981e+01   2.0884491994547139e+00   2.0409588578571705e+00
   1.4886546443593154e+01   2.1186722869834531e+00   2.0308960274686725e+00
   1.4659740561936456e+01   2.1186728135371951e+00   2.0359255413863049e+00
   1.4538533410312954e+01   2.0983740921945184e+00   2.0409566167389377e+00
   1.4657815385752443e+01   2.1083901213326377e+00   2.0359239014067132e+00
   1.5242808032951146e+01   2.1033205722566342e+00   2.0258642735533958e+00
   1.5056271532481439e+01   2.0983571023198251e+00   2.0308925217360425e+00
   1.5090639468594595e+01   2.0934382831938692e+00   2.0308946263717726e+00
   1.5232942394835147e+01   2.0834040796324151e+00   2.0258622402049644e+00
   1.4533220901919746e+01   2.0632203974356820e+00   2.0409586791622569e+00
   1.4352309916409798e+01   2.0632217761363112e+00   2.0459871840943693e+00
   1.5037509568920813e+01   2.0531886479599040e+00   2.0308925184235331e+00
   1.4938509326383976e+01   2.0683266483155043e+00   2.0359272291675454e+00
   1.5037672554465068e+01   2.0481971923054294e+00   2.0308962017570100e+00
   1.2278641496150787e+01   2.0131459843491530e+00   2.1214614419902942e+00
   1.1897770498889109e+01   2.1437293690386348e+00   2.1466178643048508e+00
   1.1945258644659436e+01   2.2091165640337831e+00   2.1466199167255793e+00
   1.2152125327075177e+01   2.1888644080724649e+00   2.1315218013730215e+00
   1.1909571333280933e+01   2.2041155889540356e+00   2.1466161786718159e+00
   1.1792637236256994e+01   2.1838596124307879e+00   2.1516519428911391e+00
   1.1868225127730305e+01   2.1589005707990281e+00   2.1466153694064514e+00
   1.2365204412673654e+01   2.1488180303870013e+00   2.1214579871875356e+00
   1.2355095676871992e+01   2.1638052581383671e+00   2.1214588807509265e+00
   1.2244144749702775e+01   2.1436930583712028e+00   2.1264896093025665e+00
   1.2452175472834735e+01   2.1385946714329291e+00   2.1164265980592845e+00
   1.1715153204339284e+01   2.1436956461613312e+00   2.1566808472302617e+00
   1.1540642426871868e+01   2.1385950152371871e+00   2.1667462545650995e+00
   1.1769553344451905e+01   2.1136047124539483e+00   2.1516489997448209e+00
   1.2213375830469682e+01   2.1285627997824563e+00   2.1264891853927770e+00
   1.2042381027134002e+01   2.1335684291437058e+00   2.1365553181927739e+00
   1.1878676381700110e+01   2.1186736279803902e+00   2.1466169816291005e+00
   1.2133060382939542e+01   2.0884654115594437e+00   2.1315224583991661e+00
   1.2681673172459304e+01   2.0884831678761491e+00   2.1063656960157493e+00
   1.3191211326114294e+01   2.0983935357889392e+00   2.0862390325840097e+00
   1.2810156078715980e+01   2.1235652850992071e+00   2.1013326601340498e+00
   1.2704046125321295e+01   2.1487989384740773e+00   2.1063652744035344e+00
   1.2557265209856045e+01   2.1335654487618072e+00   2.1113961295313275e+00
   1.2712807290813897e+01   2.1235647305687904e+00   2.1063638942257259e+00
   1.3165927932652032e+01   2.1186913595526207e+00   2.0862373471209015e+00
   1.2941423868281882e+01   2.1235636043249748e+00   2.0963000433028549e+00
