   2.8336401944068712e+01   2.7518782038316405e+00   1.4719625652824817e+00
   2.9582643287935682e+01   2.7726055879284850e+00   1.4502811414084320e+00
   2.9025359005932881e+01   2.7848409102217850e+00   1.4644238520098865e+00
   2.9118870166757258e+01   2.7876899771899772e+00   1.4540522468988555e+00
   3.0027559927603342e+01   2.7641236062245400e+00   1.4483939091465328e+00
   3.0006032651145105e+01   2.7650580177029620e+00   1.4389659054575112e+00
   2.9564070158483084e+01   2.7763765914499476e+00   1.4502799172084926e+00
   2.9129086316845811e+01   2.7810592746816587e+00   1.4465098511908761e+00
   2.9118128665499196e+01   2.7848296025829717e+00   1.4399115782890715e+00
   2.9328221071165856e+01   2.7641232755603364e+00   1.4493363816689715e+00
   2.9317326195700502e+01   2.7631781897008274e+00   1.4493361397649989e+00
   2.8465927005923167e+01   2.7528076006439997e+00   1.4389672806443543e+00
   2.8684926771165813e+01   2.7674280290162718e+00   1.4575197415341123e+00
   2.8901817021446146e+01   2.7773200556878566e+00   1.4521655369299604e+00
   2.8862040572046617e+01   2.7754423450827712e+00   1.4521663516267960e+00
   2.8790843455249345e+01   2.7716597473972060e+00   1.4502786894021136e+00
   2.8633101419988023e+01   2.7641245269386343e+00   1.4512218863504858e+00
   2.8384044259594262e+01   2.7537566553696879e+00   1.4568775644520831e+00
   2.8539541669814199e+01   2.7603530472062743e+00   1.4540498956705026e+00
   2.8403584482551583e+01   2.7546972218948875e+00   1.4540499848362674e+00
   2.9033682573181963e+01   2.7829462175869764e+00   1.4493381258287970e+00
   2.9111126542841280e+01   2.7820321661741136e+00   1.4333118589414200e+00
   2.8520754162636443e+01   2.7556369287338307e+00   1.4333126174406134e+00
   2.8883434092843984e+01   2.7255071859814839e+00   1.4436803207375157e+00
   2.8531045896314648e+01   2.7368073950417338e+00   1.4399108012804751e+00
   2.8836938977929279e+01   2.7292785936883566e+00   1.4417958157681574e+00
   2.8779708170493144e+01   2.7311553898244725e+00   1.4323672433376313e+00
   2.8804774777051964e+01   2.7160727994186158e+00   1.4408560667227448e+00
   2.8874727825397802e+01   2.7236106338254458e+00   1.4361380844272302e+00
   2.8838748639750339e+01   2.7160677098791952e+00   1.4323672027477372e+00
   2.8120153356174306e+01   2.7443512343991516e+00   1.4804468499833050e+00
   2.8163957730196941e+01   2.7424486334181180e+00   1.4691337154848847e+00
   2.8089024626798469e+01   2.7424751103406906e+00   1.4945883983110695e+00
   2.8204192533671836e+01   2.7500063553360987e+00   1.4898749866410046e+00
   2.8157599583679573e+01   2.7462423584133866e+00   1.4889317536230142e+00
   2.7130442283869094e+01   2.6868721731376217e+00   1.4823338895040519e+00
   2.7467224251996942e+01   2.7113924994697691e+00   1.4974170049588074e+00
   2.7491047720989044e+01   2.7113864979261062e+00   1.4861033581198753e+00
   2.8303184359464730e+01   2.7462048440128668e+00   1.4399092084009613e+00
   2.8254832915317088e+01   2.7462161087961494e+00   1.4634769393764748e+00
   2.8185612181848416e+01   2.7415006384349256e+00   1.4493392326309142e+00
   2.8324209554647574e+01   2.7462007676878946e+00   1.4314255771971578e+00
   2.7969495249543243e+01   2.6981569279317004e+00   1.4323678508220634e+00
   2.8006915611757933e+01   2.7321090199345583e+00   1.4493365476770053e+00
   2.7853936587059735e+01   2.7236170926988290e+00   1.4483956855583520e+00
   2.7806922804955139e+01   2.7226813501836933e+00   1.4493365331646817e+00
   2.7782276472232976e+01   2.7198513632142638e+00   1.4483949109733432e+00
   2.8474582852546884e+01   2.7386947875949628e+00   1.4333100710075251e+00
   2.8693793979518951e+01   2.7170193497378095e+00   1.4446261672745302e+00
   2.8768526769428167e+01   2.7179550281162337e+00   1.4314251400013034e+00
   2.7454396553391955e+01   2.6868521642531462e+00   1.4408531599044974e+00
   2.7561778145031862e+01   2.7104278189874784e+00   1.4531067177815105e+00
   2.7593791955599507e+01   2.7104223158672820e+00   1.4436810504652846e+00
   2.7692961887897113e+01   2.7000497051525718e+00   1.4446230593264493e+00
   2.7499862844635953e+01   2.7057078216966608e+00   1.4493375293455979e+00
   2.7140030121190321e+01   2.6840594119536356e+00   1.4474527789221905e+00
   2.7676428329902166e+01   2.7123010322765673e+00   1.4380277851061849e+00
   2.7658722677737146e+01   2.7113587151571790e+00   1.4333111837196824e+00
   2.7675331831970325e+01   2.7085310023140936e+00   1.4361388174430278e+00
   2.7831586127716797e+01   2.6972201839339696e+00   1.4436819536451613e+00
   2.7552634214003223e+01   2.6878249945991595e+00   1.4389675336955097e+00
   2.7745903207417506e+01   2.7075824622320246e+00   1.4304864229442558e+00
   2.7929912179425607e+01   2.6953339067280409e+00   1.4295398060715478e+00
   2.7513228770691875e+01   2.6859352116346908e+00   1.4333118334427082e+00
   2.8164930576045823e+01   2.6954061537637921e+00   1.5511565993690266e+00
   2.8077238390967551e+01   2.6897410345928749e+00   1.5445579012803048e+00
   2.8034418947497628e+01   2.6878886379832370e+00   1.5454989364089202e+00
   2.8293482616748790e+01   2.7001247516697706e+00   1.5624699314445878e+00
   2.8283216689819159e+01   2.7001228014663394e+00   1.5596430147940066e+00
   2.8210491377475027e+01   2.6982358185449682e+00   1.5634125527952361e+00
   2.8076526935616538e+01   2.6897542733298034e+00   1.5700142855442656e+00
   2.8035146910624281e+01   2.6878984464051920e+00   1.5662423844993036e+00
   2.8158270435784956e+01   2.6954091783883301e+00   1.5586993370835434e+00
   2.8073692231307586e+01   2.6897473759569386e+00   1.5568136704339592e+00
   2.8055717299644186e+01   2.6888110776397616e+00   1.5568134091745842e+00
   2.8235685883085520e+01   2.6991672221001068e+00   1.5445570487215281e+00
   2.8242217982137415e+01   2.6991655149238243e+00   1.5407861408284218e+00
   2.8079530567953217e+01   2.6906823202719563e+00   1.5360712110437904e+00
   2.8090693050384715e+01   2.6897389021797316e+00   1.5398426994928476e+00
   2.7925225013534714e+01   2.6812610397578878e+00   1.5389004327704772e+00
   2.7602269582006421e+01   2.6614990231590099e+00   1.5511565342106770e+00
   2.7903598449398082e+01   2.6803605563955242e+00   1.5643561451617993e+00
   2.7451857178839703e+01   2.6850467915161684e+00   1.5662412093899687e+00
   2.7847821585388903e+01   2.6775271895186306e+00   1.5539854589019153e+00
   2.7447392362576903e+01   2.6869234224630176e+00   1.5615271896872396e+00
   2.7804460093482501e+01   2.6746967141241638e+00   1.5624705519487330e+00
   2.7619670083101681e+01   2.6633909846558934e+00   1.5624711854957929e+00
   2.7770640791492625e+01   2.6718768830026263e+00   1.5587008122221200e+00
   2.7620688867463279e+01   2.6633876997736907e+00   1.5549301263355797e+00
   2.7180532267496183e+01   2.6709369746694565e+00   1.5634134756796898e+00
   2.7174338676038463e+01   2.6699851985091105e+00   1.5539854847035559e+00
   2.7600935873675677e+01   2.6615065808409923e+00   1.5652994565170777e+00
   2.7538097963790200e+01   2.6586805552988650e+00   1.5681283470651712e+00
   2.7353148019394840e+01   2.6465769992788721e+00   1.5681392985996818e+00
   2.7605846642000476e+01   2.6624507104645043e+00   1.5596412845148284e+00
   2.7478635439098756e+01   2.6539668750834866e+00   1.5605859262249757e+00
   2.7394343271177739e+01   2.6492491763385688e+00   1.5568144811358138e+00
   2.7845781489495099e+01   2.6765740133314919e+00   1.5464413614320669e+00
   2.7463736946562847e+01   2.6850381477402885e+00   1.5473851744121254e+00
   2.7848238609147614e+01   2.6765688849006830e+00   1.5379581153824271e+00
   2.7457571172586714e+01   2.6869128361457184e+00   1.5388985486042781e+00
   2.7831849176091442e+01   2.6756330124401320e+00   1.5464434356619563e+00
   2.7661500220052307e+01   2.6652638848229797e+00   1.5492718986566805e+00
   2.7775398088424129e+01   2.6718505098635776e+00   1.5379588170089882e+00
   2.7632458274971970e+01   2.6633775797417196e+00   1.5351279123491921e+00
   2.7171312822561571e+01   2.6699817239057895e+00   1.5473848298225936e+00
   2.7161303970784232e+01   2.6690377417695119e+00   1.5370160086968447e+00
   2.7547397065496604e+01   2.6586694727435800e+00   1.5473864961654722e+00
   2.7360160686860379e+01   2.6464199699029578e+00   1.5483274629622337e+00
   2.7601598999776986e+01   2.6614914322001306e+00   1.5388991426639018e+00
   2.7546116798460961e+01   2.6577225928332471e+00   1.5360725139171669e+00
   2.7387967221651955e+01   2.6482975676034330e+00   1.5379579044889629e+00
   2.7323829047149395e+01   2.6445595931536898e+00   1.5436141387516213e+00
   2.7313766260598101e+01   2.6445719128760889e+00   1.5671835253333899e+00
   2.7317922025487828e+01   2.6445673765261786e+00   1.5577563124355842e+00
   2.7345513477880520e+01   2.6454701653622537e+00   1.5360722829378357e+00
   2.8229521537619604e+01   2.6972691720125832e+00   1.5162740265872625e+00
   2.8101592249514567e+01   2.6906788925976755e+00   1.5294725303277921e+00
   2.8094571238644736e+01   2.6897344555336051e+00   1.5304134240169012e+00
   2.8060311315244277e+01   2.6887859309549360e+00   1.5304141680524448e+00
   2.7981128732628370e+01   2.6831619996068876e+00   1.5172160277828621e+00
   2.8269403793745298e+01   2.6991540592287397e+00   1.5162710293274315e+00
   2.8100244461441491e+01   2.6897257917589226e+00   1.5134449994152317e+00
   2.7949694200189057e+01   2.6812736228389138e+00   1.5162710786224398e+00
   2.7629236981022498e+01   2.6614794472515935e+00   1.5162718995245774e+00
   2.7908075787952200e+01   2.6794011436323930e+00   1.5341858404882451e+00
   2.7875822853200049e+01   2.6775099740266204e+00   1.5200435183878087e+00
   2.7476485057855999e+01   2.6869043684322262e+00   1.5219286370479668e+00
   2.7779200104405778e+01   2.6718485804557264e+00   1.5341885368458961e+00
   2.7636825145900623e+01   2.6633764305459189e+00   1.5332429204835063e+00
   2.7803000369257724e+01   2.6718410941476720e+00   1.5181595728240047e+00
   2.7647576885121399e+01   2.6633729603258378e+00   1.5247584919897685e+00
   2.7175492112292702e+01   2.6690351658725282e+00   1.5332423108610445e+00
   2.7167943958094455e+01   2.6680757181121910e+00   1.5209851764785283e+00
   2.7613935935121056e+01   2.6614853719599547e+00   1.5275874831683778e+00
   2.7496528913349430e+01   2.6539512676168897e+00   1.5304165862101708e+00
   2.7371665021036332e+01   2.6464305780684936e+00   1.5257004099931546e+00
   2.7637732887701535e+01   2.6624201127761213e+00   1.5172142360003791e+00
   2.7550194323923616e+01   2.6567694201612695e+00   1.5172157534066133e+00
   2.7517564735383505e+01   2.6501707366215004e+00   1.5172154813478187e+00
   2.7904558112141483e+01   2.6784390115498695e+00   1.5162726277281524e+00
   2.7480348083505145e+01   2.6869011675174024e+00   1.5134446570106608e+00
   2.7555434466719156e+01   2.6897217723146394e+00   1.5049595390176502e+00
   2.7816603846420559e+01   2.6727806474503342e+00   1.5134452784974206e+00
   2.7667090781023834e+01   2.6633546451894370e+00   1.5125008096824104e+00
   2.7307863500602114e+01   2.6756124718735164e+00   1.5096730850968167e+00
   2.7283792284268436e+01   2.6746700895837190e+00   1.5115587742129644e+00
   2.7205402636557377e+01   2.6671269639617474e+00   1.5125014684805846e+00
   2.6939984915045777e+01   2.6774846192360648e+00   1.4993017277765606e+00
   2.7186510497647429e+01   2.6671235955988153e+00   1.5059030050846292e+00
   2.7534549877879190e+01   2.6558197040315603e+00   1.5153305225564728e+00
   2.7411432511479347e+01   2.6473410213602193e+00   1.5125018222555091e+00
   2.7378903385155969e+01   2.6454811706430559e+00   1.5143874600338063e+00
   2.7349685177483746e+01   2.6454896956001783e+00   1.5304129671039381e+00
   2.7354774663058091e+01   2.6445466879680462e+00   1.5200433241120883e+00
   2.6969662575239703e+01   2.6774741596433178e+00   1.4776179714572435e+00
   2.8301207678714970e+01   2.6831090064322951e+00   1.4314248129122786e+00
   2.7750396431409552e+01   2.6529481751237922e+00   1.4370812033441429e+00
   2.7577345351541744e+01   2.6812268030933781e+00   1.4446233502223178e+00
   2.7563860913427092e+01   2.6793452802177828e+00   1.4446248912461022e+00
   2.7855068220174527e+01   2.6887647721925223e+00   1.4361395701548154e+00
   2.7647966786997628e+01   2.6812226594914410e+00   1.4370828961778928e+00
   2.7898628961697703e+01   2.6878229789946113e+00   1.4351974969085506e+00
   2.7607546877937040e+01   2.6849936742088221e+00   1.4342542677663233e+00
   2.7906599604002224e+01   2.6783929512566234e+00   1.4276556704284551e+00
   2.8344745432653632e+01   2.6652045163236644e+00   1.4408525350896362e+00
   2.7858800625776890e+01   2.6699091912890394e+00   1.4285981057339425e+00
   2.7530743800225142e+01   2.6859355834271232e+00   1.4342547702480910e+00
   2.7356218189708059e+01   2.6783964308503072e+00   1.4351967192758595e+00
   2.7574269319572007e+01   2.6831078979909964e+00   1.4304824675321437e+00
   2.7358751257906434e+01   2.6576607965922294e+00   1.4380255461182831e+00
   2.7383849356056665e+01   2.6586039279145717e+00   1.4333129512421887e+00
   2.7477144228982073e+01   2.6529421357548881e+00   1.4257719906671915e+00
   3.0040422658343193e+01   2.8206026831580298e+00   1.4125708233583401e+00
   3.0089794587084906e+01   2.8215418804024797e+00   1.4059725607856481e+00
   2.9970761668274179e+01   2.8215541303530767e+00   1.4323676937863814e+00
   2.9994174868830264e+01   2.8206081598751016e+00   1.4229410959142126e+00
   3.0266367715027219e+01   2.8225077368553557e+00   1.3861767320167246e+00
   3.0121376847924132e+01   2.8215388051052379e+00   1.4003176926941736e+00
   3.0232813700714214e+01   2.8225106996137179e+00   1.3927756657361148e+00
   3.0175802659318510e+01   2.8215346145995324e+00   1.3899472416207415e+00
   3.0195224989670304e+01   2.8215321266449296e+00   1.3861767705752583e+00
   3.0332483956989709e+01   2.8224970136004468e+00   1.3748658679127790e+00
   3.0255330651639571e+01   2.8196693887736513e+00   1.3739226024506792e+00
   3.0353513487586870e+01   2.7754165137463467e+00   1.4201132257568583e+00
   3.0417192996933181e+01   2.7744760759829430e+00   1.4191706420095074e+00
   3.0348869459187092e+01   2.7782489081852284e+00   1.4351963162861789e+00
   3.0441396445798915e+01   2.7725964439048068e+00   1.4314262933271586e+00
   3.0270922332681060e+01   2.7801404249483332e+00   1.4276586139618883e+00
   3.0383971828767976e+01   2.7744811800143676e+00   1.4295442361558937e+00
   3.0473725267215528e+01   2.7772979873390620e+00   1.4069158363236991e+00
   3.0511813891410878e+01   2.7772952447865729e+00   1.4012609716965094e+00
   3.0784463046543625e+01   2.8394197071911886e+00   1.3513017747606924e+00
   3.0497572213524947e+01   2.8234235883624543e+00   1.3494160442281744e+00
   3.0379156434151000e+01   2.8224935569222618e+00   1.3682677543026180e+00
   3.0313608707732520e+01   2.8206036797323533e+00   1.3635553278530643e+00
   3.0408809997006472e+01   2.8224904022814945e+00   1.3616699115377882e+00
   3.0377143924068505e+01   2.8205993768952586e+00   1.3541293039094784e+00
   3.0466172505949118e+01   2.8205940728186900e+00   1.3418754005023967e+00
   3.0499852719625089e+01   2.8215316713077132e+00   1.3390475533740060e+00
   2.8555349563294683e+01   2.7490131105212106e+00   1.3993753427590301e+00
   2.9634736268371714e+01   2.7989413673732111e+00   1.3927762600346492e+00
   2.9419742188783726e+01   2.7895377452415806e+00   1.3918344216570564e+00
   2.9959859750410264e+01   2.8140287875702183e+00   1.3965470119722718e+00
   2.9936980751060787e+01   2.8121425981200088e+00   1.3946618731625486e+00
   2.9732152107978614e+01   2.8036511096315806e+00   1.3956041532204708e+00
   2.9667980762592673e+01   2.8008250421901506e+00   1.3946613060817552e+00
   2.9962214331047733e+01   2.8130831149254143e+00   1.3946617564753991e+00
   2.9823948016649439e+01   2.8075122338620511e+00   1.3921606371277959e+00
   2.9610383069781133e+01   2.7977664028539855e+00   1.3921611949873010e+00
   2.9225649740387055e+01   2.7839010395254933e+00   1.4088023757679471e+00
   2.9298716145453625e+01   2.7848358830168460e+00   1.3993765711341195e+00
   2.9907248550495396e+01   2.7678906797306286e+00   1.4342536671117352e+00
   2.9137841649729189e+01   2.7839106772988438e+00   1.4286009500528132e+00
   2.9195833720351761e+01   2.7857880143529670e+00   1.4182283757715624e+00
   2.8550700703637556e+01   2.7499612834702658e+00   1.4040879564041460e+00
   2.9105823117676039e+01   2.7829371693738163e+00   1.4304863803286740e+00
   2.9164188707447686e+01   2.7829309828909414e+00   1.4172854482718789e+00
   2.8505976849662719e+01   2.7527985468951477e+00   1.4229421945706351e+00
   2.8584993448251566e+01   2.7556540124945221e+00   1.4191713056152644e+00
   2.9193935781434831e+01   2.7829277813163040e+00   1.4106878805496719e+00
   2.9229589011806205e+01   2.7820049426636220e+00   1.4031449589953868e+00
   2.8540593665230737e+01   2.7490159812774730e+00   1.4040879871648095e+00
   2.8693740385773516e+01   2.7565547081895558e+00   1.3993748503175392e+00
   2.9128288289603201e+01   2.7273720260781880e+00   1.4125713977407757e+00
   2.8574621798729972e+01   2.7368025751641940e+00   1.4295422409284899e+00
   2.8796604673420060e+01   2.7320952763528545e+00   1.4229410757655991e+00
   2.8679567082846646e+01   2.7358584367951404e+00   1.4135143972235815e+00
   2.8911162923516965e+01   2.7292533593805932e+00   1.4191706118751282e+00
   2.8906628485523818e+01   2.7245587191368452e+00   1.4314247609538124e+00
   2.8874271354630391e+01   2.7160648312469711e+00   1.4248267391981424e+00
   2.9093958940151218e+01   2.7264351261247772e+00   1.4163429438931003e+00
   2.8945337123896902e+01   2.7236011475192989e+00   1.4182289469433964e+00
   2.8886818179214270e+01   2.7160622098589342e+00   1.4201137227055920e+00
   2.8673681152117702e+01   2.7358582672779010e+00   1.4125712060676610e+00
   2.8927346659044016e+01   2.7301914714907651e+00   1.4078599379953516e+00
   2.8951112692074513e+01   2.7311375185202849e+00   1.3993755297539612e+00
   2.8936326587812712e+01   2.7198286460751855e+00   1.4069158572632692e+00
   2.8912422593077356e+01   2.7160583373572149e+00   1.4125729738900152e+00
   2.9177556993544218e+01   2.7264261751016274e+00   1.4003199228031293e+00
   2.8962262631287995e+01   2.7207709078046993e+00   1.4031463604378085e+00
   2.8974614034053808e+01   2.7160515090126633e+00   1.3993769979710311e+00
   2.9405113198787756e+01   2.7867047427366987e+00   1.3824087064291493e+00
   2.9955919137721278e+01   2.7782304864970735e+00   1.3965465991377706e+00
   3.0253002149114955e+01   2.7791507207809105e+00   1.3984337275658401e+00
   3.0253528515109871e+01   2.7716344029800779e+00   1.3984316231453306e+00
   3.0100285398081891e+01   2.7754046269570929e+00   1.3974917111334486e+00
   3.0076584101358552e+01   2.7650375455393346e+00   1.3974887065588222e+00
   2.9298557946547930e+01   2.7838919546628640e+00   1.3918356431611674e+00
   2.9363678562085283e+01   2.7857706629504442e+00   1.3842934754716016e+00
   2.9794457442981809e+01   2.7735203222899334e+00   1.3956060843483173e+00
   2.9901238794074303e+01   2.7593813758961305e+00   1.3965459576244510e+00
   2.9595368365811044e+01   2.7640961182045136e+00   1.3946624194657091e+00
   2.9601907769918391e+01   2.7584379851941714e+00   1.3946609050694658e+00
   2.9437296518761197e+01   2.7848244368892638e+00   1.3739265831967538e+00
   2.9890995064430410e+01   2.7584390773833158e+00   1.3965467744344795e+00
   2.8705489682139859e+01   2.7499462164630741e+00   1.3758098299898669e+00
   2.9132381592374990e+01   2.7763471918424281e+00   1.3937203209772278e+00
   2.9126237074966806e+01   2.7754016124873311e+00   1.3927787826271196e+00
   2.9089104703859963e+01   2.7744611652893800e+00   1.3908933940966857e+00
   2.9202428691536959e+01   2.7782272989410881e+00   1.3899495117482972e+00
   2.8900263159492095e+01   2.7650335501782051e+00   1.3890048896541844e+00
   2.8790635926169937e+01   2.7593781484470479e+00   1.3899484123896109e+00
   2.8617651522851016e+01   2.7499545896197160e+00   1.3908920075912050e+00
   2.8733389525514806e+01   2.7546603625815216e+00   1.3786380541168270e+00
   2.8671742973393577e+01   2.7499495522686521e+00   1.3833508333128841e+00
   2.8806423186016065e+01   2.7537084037405739e+00   1.3635564069423571e+00
   2.9261681209367893e+01   2.7264104402861102e+00   1.3918366046140354e+00
   2.9078006402721094e+01   2.7245259332185694e+00   1.3937204501860985e+00
   2.9003346065849264e+01   2.7160483221993692e+00   1.3937215863554067e+00
   2.8305035290102253e+01   2.7396058714664502e+00   1.4276539851768579e+00
   2.8466073445163826e+01   2.7499680551190702e+00   1.4163416671133033e+00
   2.8324937889078537e+01   2.7424236452862556e+00   1.4182283428974323e+00
   2.8882482255133077e+01   2.7179444325367332e+00   1.4097459054008772e+00
   2.8510703510967843e+01   2.7386896985722444e+00   1.4219993612278281e+00
   2.8567586773410401e+01   2.7377115883149807e+00   1.4201123491066698e+00
   2.8782115735439533e+01   2.7179532638816957e+00   1.4276551941948254e+00
   2.8837707275381533e+01   2.7160648117604635e+00   1.4257698117152124e+00
   2.8834883751184606e+01   2.7170044105204041e+00   1.4154013654805242e+00
   2.8600678457903303e+01   2.7386805467527768e+00   1.4040876788396126e+00
   2.8610386446080486e+01   2.7386794097524794e+00   1.4012593343248712e+00
   2.8924453653160864e+01   2.7160566144174743e+00   1.4088025570906504e+00
   2.8910180095548366e+01   2.7179407751990641e+00   1.4031476658235447e+00
   2.8955281208529488e+01   2.7160516254004436e+00   1.4003192043386377e+00
   2.7817351659625867e+01   2.7085137009606695e+00   1.4031449967889369e+00
   2.7714105767842266e+01   2.7113498700561220e+00   1.4172869365615024e+00
   2.7726510412267931e+01   2.7113487081931860e+00   1.4144564248865770e+00
   2.7871653517507085e+01   2.6943890967383024e+00   1.4267127159842163e+00
   2.7838986398930583e+01   2.7075721139451687e+00   1.4088028526182697e+00
   2.7827438243499092e+01   2.7122821064467533e+00   1.4012629175818681e+00
   2.7812929316342174e+01   2.7113395305387762e+00   1.3974899218808585e+00
   2.7887055498187308e+01   2.7075641961929544e+00   1.3946638595021044e+00
   2.8581140489278834e+01   2.7433410610273117e+00   1.3682698878931363e+00
   2.8574827188671783e+01   2.7490103291457713e+00   1.3946616753537180e+00
   2.8634887468481242e+01   2.7490040477897510e+00   1.3805231720548323e+00
   2.8742738758553315e+01   2.7480830174965876e+00   1.3616710343032705e+00
   2.8346264983563408e+01   2.7066186560620173e+00   1.3871207063584454e+00
   2.8956658395266626e+01   2.7169923065039159e+00   1.3927788251384392e+00
   2.8688260208246056e+01   2.7160459468370011e+00   1.3890082073034098e+00
   2.8246985780167520e+01   2.7311306122978261e+00   1.3861798218539869e+00
   2.8113742218646685e+01   2.7235825218969731e+00   1.3833515827885314e+00
   2.7920095897904325e+01   2.7160454059543038e+00   1.3880660549603843e+00
   2.8613577011043919e+01   2.7037928338364692e+00   1.3890066486260881e+00
   2.8107970714168836e+01   2.7047305186039927e+00   1.3852351625829300e+00
   2.8232920746556740e+01   2.6991023625052910e+00   1.3861780234216587e+00
   2.7955056362037887e+01   2.7103817874842311e+00   1.3673274275014047e+00
   2.7877230847863530e+01   2.7094416054672266e+00   1.3890086524587646e+00
   2.7896785117421505e+01   2.7113301853033649e+00   1.3805228735471440e+00
   2.7958929959523271e+01   2.7009619518443744e+00   1.3842932407825850e+00
   2.7960176807489418e+01   2.6981333670070624e+00   1.3842938666259637e+00
   2.7669095592361035e+01   2.6981330908231818e+00   1.3824083681352264e+00
   2.7844433338471674e+01   2.6934528064506047e+00   1.3833510548403505e+00
   2.7756201108157899e+01   2.7019331860854585e+00   1.3770817574862302e+00
   2.7598723931789166e+01   2.6943946672133814e+00   1.3814651076071369e+00
   2.7707386067555593e+01   2.6859108130500160e+00   1.3824071877198885e+00
   2.7477553339135437e+01   2.6868226617597406e+00   1.3795793605264628e+00
   2.7990633482193754e+01   2.7103779801905046e+00   1.3607286623807435e+00
   2.9774265620763359e+01   2.7923154387957867e+00   1.3437641079502858e+00
   3.0165844090693469e+01   2.8102232980467616e+00   1.3475306167175614e+00
   3.0101893896181249e+01   2.8064600901222967e+00   1.3475327096928689e+00
   2.9723858822368705e+01   2.7904543146455758e+00   1.3447041666026176e+00
   2.9958029821284978e+01   2.7674507162936233e+00   1.3368606676126440e+00
   2.9675558206034491e+01   2.7857497995959299e+00   1.3418764897131921e+00
   2.9528758101151848e+01   2.7857582418365188e+00   1.3579010757904688e+00
   2.9547750962626054e+01   2.7848027377905153e+00   1.3569600046833805e+00
   3.0047638926927522e+01   2.7791351727140641e+00   1.3371662101808028e+00
   2.9635463086706270e+01   2.7838550728171185e+00   1.3390512311558636e+00
   2.9154558967423434e+01   2.7623946433091278e+00   1.3418892704839704e+00
   2.8886250003457718e+01   2.7527621410064937e+00   1.3531877225844151e+00
   2.8891949412303699e+01   2.7518138912449164e+00   1.3465897488267033e+00
   2.9465894959842743e+01   2.7763201745650861e+00   1.3399937669160509e+00
   2.9447454424996689e+01   2.7753746099720962e+00   1.3399892516932062e+00
   2.9427820838989028e+01   2.7744351275159462e+00   1.3399890616812655e+00
   2.9504333889534141e+01   2.7782028502943845e+00   1.3390492019099121e+00
   2.9446340441972904e+01   2.7753745567574901e+00   1.3390508475990841e+00
   2.9382003886417859e+01   2.7725507432818848e+00   1.3381060959538482e+00
   2.9196939739135161e+01   2.7631211878725019e+00   1.3381089094826937e+00
   2.9253722893406866e+01   2.7659499052659271e+00   1.3371632611400512e+00
   2.8895070633724433e+01   2.7499274817972506e+00   1.3409344003244916e+00
   2.9129388511145510e+01   2.7584076535881668e+00   1.3352780149870989e+00
   2.9084281083496048e+01   2.7574665518883523e+00   1.3362232411748980e+00
   2.9840997144415951e+01   2.7847833778414488e+00   1.3154872525018959e+00
   3.0555207496672661e+01   2.7772508444942314e+00   1.3352782711543436e+00
   3.0540528705081677e+01   2.7734893230278481e+00   1.3315111054123732e+00
   3.0576714725452767e+01   2.7623947768461572e+00   1.3318337394515622e+00
   3.0617791078905888e+01   2.7763137025811568e+00   1.3267982690796680e+00
   3.0597616742623760e+01   2.7725323377927484e+00   1.3249100058273431e+00
   2.9734419288680282e+01   2.7847891621917351e+00   1.3286825911123343e+00
   3.0738312456889709e+01   2.7753627992135854e+00   1.3173723436661675e+00
   3.0659464159750495e+01   2.7744231871006280e+00   1.3164295845785974e+00
   3.0789180303260462e+01   2.7781891503893710e+00   1.3107717408908774e+00
   3.0732995127419699e+01   2.7725251776450905e+00   1.3098290104425274e+00
   3.0023506541680437e+01   2.7772384829081478e+00   1.3117144353081536e+00
   2.9904886601417335e+01   2.7857191604870408e+00   1.3051158284224051e+00
   3.0093324106158612e+01   2.7791198746287828e+00   1.3060608056435414e+00
   2.9170693155234570e+01   2.7508514110822513e+00   1.3060580675195803e+00
   2.9783704298603318e+01   2.7828964015052349e+00   1.3164294905162357e+00
   2.9103688799387648e+01   2.7546601947587162e+00   1.3220819749673125e+00
   2.9181597833495168e+01   2.7555923977541510e+00   1.3173698106581193e+00
   2.9785343349762261e+01   2.7828950552109446e+00   1.3154866606033402e+00
   2.9908164337516201e+01   2.7828881109795720e+00   1.3004050998170826e+00
   2.9308268217162283e+01   2.7546477602261108e+00   1.2947466614165570e+00
   2.9246404272966089e+01   2.7499043588214080e+00   1.2975744957314994e+00
   2.9516964119779985e+01   2.7207176561250348e+00   1.3060601421143594e+00
   2.9226375098830523e+01   2.7358025876622118e+00   1.3201968315119510e+00
   2.9484090820278841e+01   2.7292019592139183e+00   1.3267954362587815e+00
   2.9243009252073922e+01   2.7367476051339308e+00   1.3145406275775700e+00
   2.9483294124933938e+01   2.7310909674630146e+00   1.3135985471356155e+00
   2.9426847750707751e+01   2.7216696332586512e+00   1.3230241095853281e+00
   2.9453575001589822e+01   2.7207234743474813e+00   1.3164262169380216e+00
   2.9342275611552591e+01   2.7357954423344157e+00   1.3060582331835127e+00
   2.9604740693478636e+01   2.7291926814465941e+00   1.3107710582425605e+00
   2.9410428380078265e+01   2.7357930749083548e+00   1.2994590424746120e+00
   2.9537920411612795e+01   2.7320216298107836e+00   1.3022866152121042e+00
   2.9649571450253124e+01   2.7244741556173278e+00   1.3013466461834020e+00
   2.8784335435702751e+01   2.7433261500653545e+00   1.3381059887178954e+00
   2.8711492580689722e+01   2.7395747341549574e+00   1.3352808886700953e+00
   2.8715765179334333e+01   2.7461652267580674e+00   1.3588438576904545e+00
   2.8716378743526906e+01   2.7452503785809670e+00   1.3503605581312261e+00
   2.8913987273488569e+01   2.7480696316130464e+00   1.3343357241522158e+00
   2.8762364072430501e+01   2.7405273450543364e+00   1.3324483495806918e+00
   2.8773027539993322e+01   2.7019318335289269e+00   1.3268085592645458e+00
   2.8602757760965464e+01   2.7320383710725658e+00   1.3333927688504976e+00
   2.9078366231432689e+01   2.7376667767170462e+00   1.3305651645542069e+00
   2.8494862415515083e+01   2.7282630494171261e+00   1.3343364270714961e+00
   2.8384407930289633e+01   2.7216752209046327e+00   1.3333931142632636e+00
   2.8324322535908145e+01   2.7169591773948802e+00   1.3305686732475315e+00
   2.8570475436488085e+01   2.7282615073884524e+00   1.3305654523819821e+00
   2.8382535286776022e+01   2.7197880958163752e+00   1.3305651979910122e+00
   2.8552680441249262e+01   2.6962392606723027e+00   1.3267950906949908e+00
   2.7941004589568553e+01   2.6971634696148041e+00   1.3286808001519008e+00
   2.8084906978965073e+01   2.7094198324874781e+00   1.3494201166872990e+00
   2.8099635234750256e+01   2.7113122849214153e+00   1.3456469119533501e+00
   2.8133940988667209e+01   2.7103652890816878e+00   1.3371633516866173e+00
   2.8285647942184568e+01   2.7122424150412554e+00   1.3239700913235231e+00
   2.8248783697032390e+01   2.7075312811556773e+00   1.3296254606658766e+00
   2.8023241954845926e+01   2.7009346810563737e+00   1.3296230596181802e+00
   2.8287709005883986e+01   2.7075312451645503e+00   1.3286828321962414e+00
   2.8555045603323556e+01   2.6934107836458168e+00   1.3239677181946163e+00
   2.8195533595653018e+01   2.6934091880412114e+00   1.3220816552787387e+00
   2.7868525102736836e+01   2.6915347289018863e+00   1.3286803395022513e+00
   2.7789575277853725e+01   2.6868122980927978e+00   1.3286777520388193e+00
   2.9043110883273474e+01   2.7395597069513959e+00   1.3032330383267925e+00
   2.8866788893076105e+01   2.7442875914239875e+00   1.3249094224201599e+00
   2.9076303958074970e+01   2.7480443905478529e+00   1.3107710685071532e+00
   2.8979053601124431e+01   2.7395617832161379e+00   1.3070038081552231e+00
   2.9137849304528466e+01   2.7395543278248708e+00   1.2938070616279933e+00
   2.9428816903370425e+01   2.7150606943800772e+00   1.3051179873959062e+00
   2.9074849768365873e+01   2.7386303431657661e+00   1.3258524729681112e+00
   2.9145961674431298e+01   2.7386260216707812e+00   1.3164268005620934e+00
   2.9325902955990649e+01   2.7188443497331640e+00   1.3277376826960052e+00
   2.9286936178674512e+01   2.7150726649716148e+00   1.3277405944143725e+00
   2.9374372251004750e+01   2.7160090161978863e+00   1.3154867409513611e+00
   2.9381682221831770e+01   2.7150652441454501e+00   1.3136018139376904e+00
   2.8554974434437057e+01   2.7009599948147676e+00   1.3183112549128584e+00
   2.9291930416495326e+01   2.7367436491607053e+00   1.3079428308854391e+00
   2.9296308203176284e+01   2.7386169589422833e+00   1.2975747380139158e+00
   2.9398108598646921e+01   2.7150633272318410e+00   1.3098311911083702e+00
   2.9574553405508290e+01   2.7207129525364935e+00   1.2985189812846716e+00
   2.9436647603245415e+01   2.7141357168046412e+00   1.2985208718516892e+00
   2.8488256651392255e+01   2.7084570220520061e+00   1.2956899649003590e+00
   2.8340234961614712e+01   2.7131813308254933e+00   1.3173716478004960e+00
   2.8397723006820971e+01   2.7093962260641322e+00   1.3060609577452005e+00
   2.8361476665582241e+01   2.7084688206766820e+00   1.3173688700497987e+00
   2.8402789665526413e+01   2.6971894859616432e+00   1.3201974621767614e+00
   2.8297828472384818e+01   2.6915303975835516e+00   1.3201964512468845e+00
   2.8434509859346282e+01   2.7084621769675001e+00   1.3041727469653879e+00
   2.8442760421988179e+01   2.7112866410987411e+00   1.2975747380932561e+00
   2.8476408802873056e+01   2.7112841653595425e+00   1.2928643208550441e+00
   2.8565352033768988e+01   2.7084546287144469e+00   1.2900364834597269e+00
   2.8604003941961885e+01   2.6962733435291453e+00   1.4276556480827309e+00
   2.8646503334812522e+01   2.6934459385910601e+00   1.4267134311013940e+00
   2.7821694024027742e+01   2.6689615324143641e+00   1.4201145580920143e+00
   2.7887181079992757e+01   2.6783923357929051e+00   1.4267127715792707e+00
   2.7898245802152417e+01   2.6680208567784156e+00   1.4182284411189998e+00
   2.7889996671329115e+01   2.6689603219130880e+00   1.4172861377656027e+00
   2.7490652257966996e+01   2.6595415061295005e+00   1.4238857749521951e+00
   2.7529133018919140e+01   2.6529403504604510e+00   1.4220012950398275e+00
   2.8515041924706438e+01   2.6981349840963085e+00   1.3880634392624973e+00
   2.8369444913024189e+01   2.6962816352352648e+00   1.3871215198016458e+00
   2.7826893347121253e+01   2.6623461364130514e+00   1.3833520581846190e+00
   2.8103238589082039e+01   2.6840279037940808e+00   1.3852355945744019e+00
   2.8214053548509757e+01   2.6802595939892195e+00   1.3861785831281990e+00
   2.7942308055182576e+01   2.6802580762973727e+00   1.3842932372844992e+00
   2.8097195292701048e+01   2.6802587476988187e+00   1.3852361024861470e+00
   2.8000156191752879e+01   2.6698872579081505e+00   1.3852364862344080e+00
   2.7799489036369479e+01   2.6830846640130437e+00   1.3833505660733738e+00
   2.7823040784380794e+01   2.6689423375837817e+00   1.3833514758158005e+00
   2.7560921490943823e+01   2.6774244488867951e+00   1.3814649783411923e+00
   2.7373962212460697e+01   2.6783664362743407e+00   1.3776950037188098e+00
   2.7696269414699319e+01   2.6585755863711737e+00   1.3824092133230963e+00
   2.7689192312756052e+01   2.6519760995880146e+00   1.3824075822968469e+00
   2.8594531887745163e+01   2.6924752721600225e+00   1.3249098591433173e+00
   2.8787091164482405e+01   2.6905909429570776e+00   1.3239674915509980e+00
   2.9390661951544420e+01   2.6990714504078110e+00   1.3220817207612843e+00
   2.5945098924506510e+01   2.5833228981587402e+00   1.5464428850307388e+00
   2.6638444420939187e+01   2.6351347448746516e+00   1.5445557098259486e+00
   2.6573062647484068e+01   2.6304167099497198e+00   1.5454986518985487e+00
   2.6886875084706105e+01   2.6520865650249057e+00   1.5690727712385972e+00
   2.6893325563819804e+01   2.6501907320000959e+00   1.5539868292958317e+00
   2.6633447298613245e+01   2.6351464410125240e+00   1.5653002775868976e+00
   2.6579676775685499e+01   2.6313768133022375e+00   1.5643580174164791e+00
   2.6635938002130391e+01   2.6351437347625275e+00   1.5605871228328192e+00
   2.6591170542023999e+01   2.6313749360782612e+00   1.5605871592305658e+00
   2.6887101189860150e+01   2.6516590470205710e+00   1.5480263041863416e+00
   2.6912912497014908e+01   2.6511170044496275e+00   1.5351292279687332e+00
   2.6631547367517062e+01   2.6341496711509587e+00   1.5360720271216464e+00
   2.6587604419137143e+01   2.6304107354189394e+00   1.5360720428723202e+00
   2.6968894123100412e+01   2.6125133709064814e+00   1.5483296669664195e+00
   2.7269994269209683e+01   2.6414937703857069e+00   1.5631120177991487e+00
   2.7211700756480401e+01   2.6364601681739415e+00   1.5530551598972160e+00
   2.6556957901314487e+01   2.6294919109690982e+00   1.5643571035077932e+00
   2.6807544944671267e+01   2.6153514833641740e+00   1.5615268260233055e+00
   2.6495856320990423e+01   2.6238289751355399e+00   1.5558703444291690e+00
   2.6608040521375639e+01   2.6181719575090399e+00   1.5520996857288401e+00
   2.6951463478631915e+01   2.6125240368804610e+00   1.5700133265629030e+00
   2.6861863602030741e+01   2.6144023832872141e+00   1.5643574885345002e+00
   2.6962921185659038e+01   2.6125184186596755e+00   1.5577566431082661e+00
   2.6876403649474906e+01   2.6106342839679995e+00   1.5558716033617646e+00
   2.7312851574159314e+01   2.6435900624838053e+00   1.5521005584211627e+00
   2.7228574795315602e+01   2.6379313862566462e+00   1.5426702506488970e+00
   2.6548621920816249e+01   2.6285372509272067e+00   1.5483292405351610e+00
   2.6816016156226933e+01   2.6153448871854295e+00   1.5483290564180383e+00
   2.6485368590744230e+01   2.6238192774453610e+00   1.5370147631537887e+00
   2.6665255196039471e+01   2.6181628198404687e+00   1.5370137385797549e+00
   2.6820908003446231e+01   2.6115691384889645e+00   1.5436131014539700e+00
   2.6970398289458871e+01   2.6125088194272075e+00   1.5388995465943032e+00
   2.6876782717912278e+01   2.6143917607202960e+00   1.5417272214610140e+00
   2.5971318927233824e+01   2.5852072546924876e+00   1.5445574132281721e+00
   2.6454483735052928e+01   2.6191207314928651e+00   1.5681286473039151e+00
   2.6512016527624507e+01   2.6181810654620081e+00   1.5681275337999199e+00
   2.6455747372511819e+01   2.6191140937540807e+00   1.5558696396558074e+00
   2.6755430633741856e+01   2.6040392922916067e+00   1.5690711434656421e+00
   2.6726853009937514e+01   2.5993269153615239e+00   1.5700147532172317e+00
   2.6632648719695478e+01   2.5918188819476784e+00   1.5681292963784208e+00
   2.6662093756137420e+01   2.6002661775616911e+00   1.5586992698494124e+00
   2.6672835791899480e+01   2.5955497697979459e+00   1.5549280942020429e+00
   2.6532269792638736e+01   2.5861550699388909e+00   1.5530425217543449e+00
   2.6206879240710176e+01   2.6021509585245228e+00   1.5615274445336134e+00
   2.6192704821108205e+01   2.6030936767720081e+00   1.5605833055655600e+00
   2.5964095699599980e+01   2.5852188795791302e+00   1.5643569669427759e+00
   2.5975193189690387e+01   2.5814465964032070e+00   1.5624704792452775e+00
   2.5950150824147517e+01   2.5842728565396791e+00   1.5586978360674024e+00
   2.5972935309364033e+01   2.5814455663176363e+00   1.5596426391941811e+00
   2.6452568931172713e+01   2.6219381479260013e+00   1.5445559394554260e+00
   2.6443618165722654e+01   2.6209927630713419e+00   1.5379567936069638e+00
   2.6671193646512034e+01   2.6002624316644503e+00   1.5502144674676992e+00
   2.6617435228450486e+01   2.5964842479604413e+00   1.5455006964536273e+00
   2.6559075726996788e+01   2.5889773340807807e+00   1.5426703297807487e+00
   2.6683288674156376e+01   2.6002420327169240e+00   1.5341858766473713e+00
   2.6729367509572558e+01   2.5993134576663621e+00   1.5426702173020119e+00
   2.6616375398683211e+01   2.5964823682626239e+00   1.5417272311681678e+00
   2.6200698999110003e+01   2.6030887847377868e+00   1.5511565805551268e+00
   2.6201697510897510e+01   2.6030823878630498e+00   1.5379564448345830e+00
   2.5977451366869094e+01   2.5814385857298232e+00   1.5492710750742660e+00
   2.5967470570763997e+01   2.5842583027630170e+00   1.5341852381445151e+00
   2.5989297944769127e+01   2.5814334296936670e+00   1.5398437999193264e+00
   2.6785452700588074e+01   2.6426189321515903e+00   1.5106162796261060e+00
   2.6852211193396307e+01   2.6501783588601500e+00   1.5322986283368074e+00
   2.6854470020283809e+01   2.6529903879441692e+00   1.5209880830917437e+00
   2.6636559623271918e+01   2.6341465014197789e+00   1.5275881911108848e+00
   2.6596248787296265e+01   2.6360295581348856e+00   1.5275881077822333e+00
   2.6634446967366245e+01   2.6360244391447787e+00   1.5162759422430745e+00
   2.6597640488690161e+01   2.6304032516572358e+00   1.5228743389106922e+00
   2.7069113668942265e+01   2.6614761674695195e+00   1.5115593811512296e+00
   2.6878576225342012e+01   2.6746616918980815e+00   1.4964742127219504e+00
   2.6672773401480860e+01   2.6633476833242478e+00   1.4993046254265165e+00
   2.6656035823914312e+01   2.6624103392414438e+00   1.4993021213273801e+00
   2.6992302004972249e+01   2.6577098750070531e+00   1.5115582147817563e+00
   2.6863420048307567e+01   2.6473388310458295e+00   1.5087311015579326e+00
   2.6815940867092635e+01   2.6445411085650181e+00   1.5106163794495762e+00
   2.6994957423522937e+01   2.6548726725369916e+00   1.5040177250188937e+00
   2.6460149411063970e+01   2.6492082142827074e+00   1.4983591030734764e+00
   2.6618726852767658e+01   2.6313441329314871e+00   1.5096714650782153e+00
   2.6720332282483106e+01   2.6369914391633431e+00   1.5049592113938086e+00
   2.6346564641970708e+01   2.6407624434796726e+00   1.4983598424204607e+00
   2.6661072756176782e+01   2.6332248149450446e+00   1.5030734760155167e+00
   2.6998240976181190e+01   2.6124842005099018e+00   1.5134440451310840e+00
   2.7296712172096512e+01   2.6416928097863286e+00   1.5275852607812399e+00
   2.7287938761093645e+01   2.6398324077488047e+00   1.5181607231399752e+00
   2.6566128973950757e+01   2.6285253823558956e+00   1.5266468012660501e+00
   2.6826969933647334e+01   2.6153242928725478e+00   1.5313584685521953e+00
   2.6587437637410133e+01   2.6294664457030761e+00   1.5219320109442902e+00
   2.6854385845216566e+01   2.6153195410577945e+00   1.5209856525080880e+00
   2.6976839621442743e+01   2.6125060050516380e+00   1.5332429620485257e+00
   2.6791980904311760e+01   2.6077860518010056e+00   1.5247570768743077e+00
   2.7004231447377965e+01   2.6124863129891782e+00   1.5181572295407721e+00
   2.6854287685635697e+01   2.6115543700988342e+00   1.5190999908489711e+00
   2.7297436672543945e+01   2.6398308286607137e+00   1.5153330566453349e+00
   2.6593949474464321e+01   2.6294610338984858e+00   1.5125056724237826e+00
   2.6708067061544234e+01   2.6181484122040501e+00   1.5115589013385946e+00
   2.6583526214409140e+01   2.6275718640789267e+00   1.5040169941668460e+00
   2.6872721458429830e+01   2.6115514168281821e+00   1.5134443476117754e+00
   2.5978611789509518e+01   2.6163090914576634e+00   1.4977442898652509e+00
   2.6289329749916810e+01   2.6351074380269912e+00   1.4955316243779406e+00
   2.6195683803530763e+01   2.6303872509758990e+00   1.4955319083687435e+00
   2.6125494545799761e+01   2.6256828307863018e+00   1.4974167023721385e+00
   2.6127976511043578e+01   2.5946075104273350e+00   1.5077881532642885e+00
   2.6450453053701100e+01   2.6214571804048941e+00   1.5329444207472238e+00
   2.6468554588281336e+01   2.6219258950415134e+00   1.5228712870538088e+00
   2.6684796919158483e+01   2.6002414405552430e+00   1.5323007482538780e+00
   2.6637835157345744e+01   2.5964745153192359e+00   1.5247588338420617e+00
   2.6284133932077467e+01   2.6011880894662651e+00   1.5275872040688259e+00
   2.6494914781354552e+01   2.5899069012682463e+00   1.5304143602462346e+00
   2.6692878713839107e+01   2.6002363793512417e+00   1.5219283072566667e+00
   2.6641593898343036e+01   2.5964725451491786e+00   1.5200426653493724e+00
   2.6594556885993512e+01   2.5889602752694332e+00   1.5143874360406615e+00
   2.6139129938723226e+01   2.6040203807093794e+00   1.5313577064650790e+00
   2.6232402270920307e+01   2.6021292493687915e+00   1.5200435792020517e+00
   2.5974776225553917e+01   2.5842541628329867e+00   1.5275873614434599e+00
   2.5997760096088395e+01   2.5814250006583572e+00   1.5257009296265120e+00
   2.5993069751059320e+01   2.5851922776859286e+00   1.5190997218226192e+00
   2.6015805951623911e+01   2.5814197735987179e+00   1.5162716369576099e+00
   2.6423324101881711e+01   2.6172035874826984e+00   1.5087305661131070e+00
   2.6400617148249793e+01   2.6143745627039885e+00   1.5049600875458988e+00
   2.6246989864711285e+01   2.6040079610100539e+00   1.5087300968367485e+00
   2.6463390001790742e+01   2.6190843295266606e+00   1.5040185221447122e+00
   2.6402599381605253e+01   2.6143737924069814e+00   1.5040174422762405e+00
   2.6323225527231990e+01   2.6087167162142304e+00   1.5021320224871524e+00
   2.6704983258738732e+01   2.6002324577055789e+00   1.5134442784181588e+00
   2.6702687018025529e+01   2.5962688217572758e+00   1.5128291748523064e+00
   2.6598015730063420e+01   2.5889574310213623e+00   1.5106158216840055e+00
   2.6200954496766752e+01   2.6002287938373390e+00   1.5068457996787950e+00
   2.5927639995621547e+01   2.6087138846232270e+00   1.4964733021858039e+00
   2.6238785070944768e+01   2.6002263719135810e+00   1.5011890444001215e+00
   2.5819423311671255e+01   2.6021071589639377e+00   1.4993017716654837e+00
   2.5780838408078743e+01   2.5992806905900463e+00   1.5002436712131502e+00
   2.6121661186925859e+01   2.5927154771845911e+00   1.5040159536506466e+00
   2.6029361154071783e+01   2.5814165573086409e+00   1.5106150031835510e+00
   2.6144359136076567e+01   2.5946045416055554e+00   1.5021319041090537e+00
   2.6109548192836620e+01   2.5917801350477929e+00   1.5030723523408374e+00
   2.6020085326507850e+01   2.5823516470339296e+00   1.5002456170723544e+00
   2.6376455024183464e+01   2.5776657135740373e+00   1.5455009962066308e+00
   2.6404087731969721e+01   2.5767350131515014e+00   1.5700132661444808e+00
   2.6371813812045012e+01   2.5786130832600396e+00   1.5558707468901645e+00
   2.6580091872745079e+01   2.5861482216785747e+00   1.5426695778727797e+00
   2.6586196423283756e+01   2.5861482723217026e+00   1.5417275264846269e+00
   2.6388766231083729e+01   2.5795437458289396e+00   1.5351287041862125e+00
   2.6457531588626097e+01   2.5757615165228778e+00   1.5134433667314147e+00
   2.6613916110882176e+01   2.5862283420889893e+00   1.5279117773913473e+00
   2.6656520748207296e+01   2.5862507164978199e+00   1.5178562937650459e+00
   2.6423326946231924e+01   2.5804746783305568e+00   1.5238159596275516e+00
   2.6455231626285133e+01   2.5757630145949348e+00   1.5153297440418869e+00
   2.5933988218636848e+01   2.5823771425509312e+00   1.5445572818941060e+00
   2.5885614205544460e+01   2.5861469343132719e+00   1.5388988411115454e+00
   2.5934417932601495e+01   2.5833367755701584e+00   1.5700132360724264e+00
   2.5972342359998162e+01   2.5811628831988807e+00   1.5681402290060613e+00
   2.5937802741308488e+01   2.5833282712476144e+00   1.5568129596032034e+00
   2.5937926189119285e+01   2.5823825805492864e+00   1.5539842447956154e+00
   2.5981393326386655e+01   2.5814320610017640e+00   1.5370138837731153e+00
   2.5455603168476170e+01   2.5738669774529050e+00   1.4974162976300749e+00
   2.5963035594457402e+01   2.5833100587276667e+00   1.5257017630225052e+00
   2.5988722659550643e+01   2.5814277000943662e+00   1.5313573091393613e+00
   2.5974259125686128e+01   2.5833065528165169e+00   1.5181575079446723e+00
   2.5996079058644362e+01   2.5814198848415617e+00   1.5172142298537874e+00
   2.5634567911035404e+01   2.5913355280108283e+00   1.4977444949072005e+00
   2.5627541336098357e+01   2.5880097523305370e+00   1.5002459187258845e+00
   2.5991101136106355e+01   2.5832990575453749e+00   1.5068452565555779e+00
   2.5903445378716494e+01   2.5766996893294256e+00   1.5087309932745867e+00
   2.5806494862086581e+01   2.5682175772649378e+00   1.5077877816363947e+00
   2.5997802142944796e+01   2.5832964629124731e+00   1.5021313124541520e+00
   2.5969500786266916e+01   2.5804621797333587e+00   1.5030740382390362e+00
   2.5578491606127365e+01   2.5811829257456047e+00   1.4927166388611841e+00
   2.5875363681508034e+01   2.5729173176940821e+00   1.5002464404882518e+00
   2.5413783630568098e+01   2.5682002963676718e+00   1.4983608956166992e+00
   2.5380587426686148e+01   2.5672632245606324e+00   1.4955339293548684e+00
   2.5349106649651937e+01   2.5615994194982132e+00   1.4945902806684792e+00
   2.5210595685923568e+01   2.5522103342659470e+00   1.4974167937640188e+00
   2.5520578197980960e+01   2.5465819935524019e+00   1.5454994135040230e+00
   2.5509654302438403e+01   2.5456124440537486e+00   1.5407840451608865e+00
   2.5741829332464409e+01   2.5635334563706431e+00   1.5624697050134999e+00
