   2.0925385449654232e+01   2.4999094589742255e+00   1.5681427524892375e+00
   2.0738870588921184e+01   2.5200452772243818e+00   1.5631112617792207e+00
   2.3920781165657029e+01   2.5100740842985876e+00   1.4323827048243958e+00
   2.3786563139591181e+01   2.5100530294201828e+00   1.4726071045841176e+00
   2.3633601077202030e+01   2.5350407696992052e+00   1.4726027633892316e+00
   2.3606436357720856e+01   2.5350480026123363e+00   1.4826598285167631e+00
   2.3566155344866374e+01   2.5250796346327422e+00   1.4726031855502060e+00
   2.3691572742391376e+01   2.5300880970679369e+00   1.4826592739250521e+00
   2.3624833439939930e+01   2.5200607671972524e+00   1.4776311128862303e+00
   2.3688362092449108e+01   2.5150641213449507e+00   1.4826614941351155e+00
   2.3734304010773986e+01   2.5300713380223270e+00   1.4675761531604792e+00
   2.3649851975792618e+01   2.5350413704844330e+00   1.4625476244589983e+00
   2.3792510682217547e+01   2.5150662694034915e+00   1.4474651125244713e+00
   2.3761432048129361e+01   2.5300728416717169e+00   1.4575194999616796e+00
   2.3612345787748517e+01   2.5250728249392633e+00   1.4575192047980761e+00
   2.3744758848958185e+01   2.5150478426708078e+00   1.4625476030131379e+00
   2.3790773974066902e+01   2.5300984903776800e+00   1.4474638144448693e+00
   2.3629704612451590e+01   2.5250724483231632e+00   1.4524917416310963e+00
   2.3281048616179596e+01   2.4999342862616314e+00   1.4675783526169814e+00
   2.3159252070225822e+01   2.5100895325823660e+00   1.4575202278888131e+00
   2.3785780425511877e+01   2.5200556361177853e+00   1.4273543139085210e+00
   2.3850960484788132e+01   2.5300822902740521e+00   1.4273547176075980e+00
   2.3821238615824726e+01   2.5300905442523218e+00   1.4374086790029992e+00
   2.3730400523553200e+01   2.5200721531195156e+00   1.4424364348195025e+00
   2.3900947503759010e+01   2.5100739957226526e+00   1.4374104385247448e+00
   2.3849916319171502e+01   2.5350706357903650e+00   1.4072425255325582e+00
   2.4027871262336518e+01   2.5100748771579151e+00   1.4072457153150060e+00
   2.3870279474062322e+01   2.5300828696715025e+00   1.4223273177845666e+00
   2.3808813029023980e+01   2.5200902960633988e+00   1.4223261128630140e+00
   2.3981278335336775e+01   2.5100925301961947e+00   1.4173008547561652e+00
   2.3920423227662756e+01   2.5301004198698358e+00   1.4072414802413202e+00
   2.3798912403706602e+01   2.5250754865033240e+00   1.4072436437289793e+00
   2.4421000917713609e+01   2.4797370377055747e+00   1.4323820995952732e+00
   2.4268873228132389e+01   2.4797154065049796e+00   1.4776327410225774e+00
   2.4042892597662725e+01   2.4949423463774520e+00   1.4726050720355019e+00
   2.3846067729894692e+01   2.5049657081441237e+00   1.4826587733791716e+00
   2.4016847306030844e+01   2.4949579510160023e+00   1.4826595096206627e+00
   2.3873981172602317e+01   2.5050018961351208e+00   1.4726043150234360e+00
   2.4193292415717316e+01   2.4848604729300847e+00   1.4726052476144909e+00
   2.4179108032501652e+01   2.4848603854553355e+00   1.4776332081082879e+00
   2.4255645346790406e+01   2.4797155325962219e+00   1.4826604888967767e+00
   2.4111490085863831e+01   2.4949613856277089e+00   1.4474636273379753e+00
   2.3918289404844781e+01   2.5049847342232097e+00   1.4625493187508840e+00
   2.3985295704619801e+01   2.4999338765889858e+00   1.4625470153203757e+00
   2.3951780437415692e+01   2.5049856255130520e+00   1.4474664660626586e+00
   2.4364928571518242e+01   2.4797183857088827e+00   1.4474644573973889e+00
   2.4156544772157979e+01   2.4899109425224135e+00   1.4575200607192162e+00
   2.4315284296290720e+01   2.4797348643166539e+00   1.4625510825097929e+00
   2.4188712547662512e+01   2.4898944801928309e+00   1.4474652906608640e+00
   2.4720538360446380e+01   2.4547280579382731e+00   1.4726023899411549e+00
   2.4539261114762645e+01   2.4646890271646913e+00   1.4726057176051268e+00
   2.4438669293471648e+01   2.4696221993779015e+00   1.4776335192809842e+00
   2.4690064314810403e+01   2.4596749405471039e+00   1.4524930059371954e+00
   2.4384640376376396e+01   2.4745872282974122e+00   1.4675783669392140e+00
   2.4655578781031384e+01   2.4596756474056143e+00   1.4625469361898196e+00
   2.4514953411004250e+01   2.4696407236134004e+00   1.4524926809084564e+00
   2.4873676953391389e+01   2.4498046521413679e+00   1.4524956112744185e+00
   2.4739173407070293e+01   2.4547610697697042e+00   1.4675758568103341e+00
   2.4932857041478940e+01   2.4448169890515743e+00   1.4625501482751806e+00
   2.4769762510504659e+01   2.4547451747109563e+00   1.4575204490972493e+00
   2.3644396522323888e+01   2.4745519744309901e+00   1.4826604376254191e+00
   2.3388266684855676e+01   2.4899266687908117e+00   1.4826620679961535e+00
   2.4264430132815832e+01   2.4899132117501126e+00   1.4273556993306438e+00
   2.4184310950130211e+01   2.4949452913869758e+00   1.4273553242970376e+00
   2.3987377902291257e+01   2.5050043480106181e+00   1.4374112562203321e+00
   2.4066711459382937e+01   2.4999537321049794e+00   1.4374096447565985e+00
   2.4024355995991339e+01   2.5050054517520248e+00   1.4273562705852330e+00
   2.4383851031091314e+01   2.4797189629466994e+00   1.4424376214580845e+00
   2.4306977506099866e+01   2.4848640217653899e+00   1.4374097004362667e+00
   2.4172048023143049e+01   2.4999368625522225e+00   1.4122727424184087e+00
   2.4069346402391652e+01   2.5050054792653977e+00   1.4173011502705766e+00
   2.4129576830272967e+01   2.4999370022103395e+00   1.4223284216664136e+00
   2.4115062211052017e+01   2.5049885955722622e+00   1.4072459525406049e+00
   2.4531696873997220e+01   2.4797213530424660e+00   1.4072458443517288e+00
   2.4310052121404304e+01   2.4899145095824338e+00   1.4173010359569840e+00
   2.4465268398091386e+01   2.4797383150914141e+00   1.4223273688586722e+00
   2.4418155633718616e+01   2.4848474046631748e+00   1.4122728114497651e+00
   2.4949088713063610e+01   2.4498395776704784e+00   1.4323840295291148e+00
   2.4678449649879934e+01   2.4646915054692782e+00   1.4323820542691854e+00
   2.4533311897279159e+01   2.4696401456649273e+00   1.4474654194618375e+00
   2.4623114000379115e+01   2.4646735864014868e+00   1.4474641639079591e+00
   2.4507662404835980e+01   2.4745892360073203e+00   1.4323818902220378e+00
   2.4839797027480639e+01   2.4547292368651457e+00   1.4374108555008842e+00
   2.4803881492748793e+01   2.4547448716392140e+00   1.4474662751528937e+00
   2.4892622719725619e+01   2.4498044868500468e+00   1.4474671550442604e+00
   2.4759779437436777e+01   2.4646749516677247e+00   1.4122729698542971e+00
   2.4633012830063745e+01   2.4696579809318142e+00   1.4223287006627741e+00
   2.4805877139268791e+01   2.4596942176252221e+00   1.4223286016541066e+00
   2.4654981027272946e+01   2.4696417809430238e+00   1.4173011715274766e+00
   2.5104191656948629e+01   2.4448522010096490e+00   1.4173018251281948e+00
   2.4885017639393567e+01   2.4547627518304305e+00   1.4273555984897437e+00
   2.5063275947838143e+01   2.4448355530936521e+00   1.4273568445102998e+00
   2.4925806409241869e+01   2.4547635903776750e+00   1.4173009822640998e+00
   2.7439198279545707e+01   2.5956138196078506e+00   1.3971909576924233e+00
   2.6436798444134098e+01   2.5754987606312030e+00   1.4072463072072612e+00
   2.6947530568274118e+01   2.5854438771880863e+00   1.3871353783366662e+00
   2.6481911450748150e+01   2.5755001996403157e+00   1.3971904748468686e+00
   2.7233974998786003e+01   2.5703551035939785e+00   1.4172975093728111e+00
   2.7375971236624391e+01   2.5754816011308730e+00   1.4173013447211200e+00
   2.6915528767390882e+01   2.5854603374857557e+00   1.4072465243753220e+00
   2.7123793581397809e+01   2.5904625721996597e+00   1.4173020466221231e+00
   2.6977595069288608e+01   2.5854603859179548e+00   1.4173014982291650e+00
   2.7217731241898065e+01   2.5754807221545697e+00   1.4223292490081383e+00
   2.7151703693858515e+01   2.5904629484011332e+00   1.4122739680844245e+00
   2.6697444759457731e+01   2.5805611358076579e+00   1.4022191381704054e+00
   2.6686889447564809e+01   2.5805601651174714e+00   1.4122735417274945e+00
   2.6658352575520603e+01   2.5754815538080367e+00   1.4122740043578506e+00
   2.6940112163408024e+01   2.5854606194542136e+00   1.4022181481644940e+00
   2.7201172041292413e+01   2.5904816584137258e+00   1.4022184408677998e+00
   2.6716175182584447e+01   2.5805614538764674e+00   1.3971915986525172e+00
   2.6213461763230146e+01   2.5703822970368844e+00   1.4022169476315831e+00
   2.6207416635106540e+01   2.5703559852681672e+00   1.4072441269874214e+00
   2.5761353548288124e+01   2.5603868595850217e+00   1.4022186157159775e+00
   2.5959560705779385e+01   2.5653884761891286e+00   1.4072436624033808e+00
   2.5742398200242455e+01   2.5603864734152531e+00   1.4072464431462148e+00
   2.6003238733453145e+01   2.5653802335395586e+00   1.3971888511579127e+00
   2.6235713905430988e+01   2.5703832924408285e+00   1.3971886575605614e+00
   2.6480324264818623e+01   2.5755009667573905e+00   1.3921629035769121e+00
   2.6016318430546566e+01   2.5653805276737445e+00   1.3871344233276415e+00
   2.6024542501932402e+01   2.5653808007733301e+00   1.3921620234299199e+00
   2.5810407203627026e+01   2.5603875968045293e+00   1.3921634881558518e+00
   2.5334840379763296e+01   2.5501790070887678e+00   1.3971884931013321e+00
   2.5558228926031063e+01   2.5552941967790397e+00   1.3971889889338376e+00
   2.4915908388057638e+01   2.5400870580370976e+00   1.3971918717546996e+00
   2.5123337143656652e+01   2.5451478559893603e+00   1.3971882729215785e+00
   2.5382144907163401e+01   2.5501630633799763e+00   1.3821057450352028e+00
   2.5581698053024507e+01   2.5552948187687794e+00   1.3921603090425680e+00
   2.5357926307615710e+01   2.5501705813875248e+00   1.3921604118900230e+00
   2.4949326528471545e+01   2.5401054948930879e+00   1.3770807669444569e+00
   2.5175731302082745e+01   2.5451400454374591e+00   1.3821061253918137e+00
   2.4951535416958329e+01   2.5401053082734060e+00   1.3871367264905639e+00
   2.5261755418148599e+01   2.5451313593820704e+00   1.3720502993447210e+00
   2.4740559677983377e+01   2.5501624363717967e+00   1.3770783396465784e+00
   2.6082415860028785e+01   2.5501895775377390e+00   1.3720520342750195e+00
   2.6476883685164857e+01   2.5703553535083024e+00   1.4122720330661973e+00
   2.5722192952869335e+01   2.5501875463868249e+00   1.4122709949956023e+00
   2.6055576883637137e+01   2.5451214098752630e+00   1.4122716448945232e+00
   2.5288317642298509e+01   2.5451470353665093e+00   1.4022165639657833e+00
   2.5596367983820109e+01   2.5501790861409668e+00   1.4072439131886632e+00
   2.5163943550183884e+01   2.5400864264099670e+00   1.4022192734378667e+00
   2.4789520096759038e+01   2.4797609246002916e+00   1.3569721381616746e+00
   2.4159275883290334e+01   2.5150894195124671e+00   1.3619999396943514e+00
   2.4096367744591650e+01   2.5100771630980465e+00   1.3921637850915687e+00
   2.3918960199155084e+01   2.5350541708571122e+00   1.3871337492209408e+00
   2.3872157669019405e+01   2.5350618307467649e+00   1.4022167024883188e+00
   2.3967535851011174e+01   2.5200663465931878e+00   1.3871346173596852e+00
   2.3943470838632752e+01   2.5301014842743417e+00   1.4022167908657621e+00
   2.3921082709937462e+01   2.5200740268038784e+00   1.3971869077940831e+00
   2.4047683571057195e+01   2.5100758974263111e+00   1.4022192813161936e+00
   2.3985804877274266e+01   2.5300925773090985e+00   1.3921615288304781e+00
   2.4200490804564897e+01   2.5451409995897842e+00   1.3770785950248687e+00
   2.4638909861873842e+01   2.5301120181838090e+00   1.3670246621203530e+00
   2.3923763641924445e+01   2.5301113749680937e+00   1.3720510514219093e+00
   2.3960113776379902e+01   2.5401059260098497e+00   1.3720538592234939e+00
   2.4121214971817711e+01   2.5150886628631892e+00   1.3720542097954898e+00
   2.4018129354694135e+01   2.5300847565073594e+00   1.3770794388191165e+00
   2.3994292466714079e+01   2.5200932213423739e+00   1.3821067006306642e+00
   2.4070698918193216e+01   2.5150706097899258e+00   1.3821088029606052e+00
   2.4066058750400654e+01   2.5200849204063660e+00   1.3670251430000302e+00
   2.4635482663094102e+01   2.4899362509366108e+00   1.3519443967555416e+00
   2.4599180033305380e+01   2.4797577075632842e+00   1.3921632364838112e+00
   2.4365815068127105e+01   2.4949655373803865e+00   1.3871365416273131e+00
   2.4162834121173141e+01   2.5050254899200137e+00   1.3971912274856029e+00
   2.4321836920985344e+01   2.4949642628583231e+00   1.3971911961333900e+00
   2.4211339939304349e+01   2.5050080161931714e+00   1.3871359685401965e+00
   2.4425720446796529e+01   2.4899333239936516e+00   1.3921645638526974e+00
   2.4403082223460750e+01   2.4899323247439282e+00   1.3971910238472698e+00
   2.4552045049914316e+01   2.4797220739197212e+00   1.4022191423206574e+00
   2.4472759638563893e+01   2.4949839275887831e+00   1.3670275040607174e+00
   2.4260182994492624e+01   2.5050083730299693e+00   1.3770818398884190e+00
   2.4417888808868469e+01   2.4949483691136800e+00   1.3770777997415975e+00
   2.4222606680992055e+01   2.5100959860520113e+00   1.3670265195169482e+00
   2.4678104423596640e+01   2.4797414251993000e+00   1.3770821726770857e+00
   2.4500700331874864e+01   2.4899158772264975e+00   1.3770820829706252e+00
   2.4652039839255938e+01   2.4797411142721484e+00   1.3821051293007225e+00
   2.4637330935072271e+01   2.4848863507089476e+00   1.3670265886047601e+00
   2.5220966237369378e+01   2.4448360273366401e+00   1.3921635516057487e+00
   2.4850168175134389e+01   2.4646943559854808e+00   1.3921636340691306e+00
   2.4720110932140454e+01   2.4696426274527337e+00   1.4022191452904544e+00
   2.4806057490871801e+01   2.4647108998487095e+00   1.4022185360940129e+00
   2.4685333782812922e+01   2.4745915426020177e+00   1.3921639853927514e+00
   2.5016217560685629e+01   2.4547469379375335e+00   1.3971915786716078e+00
   2.4995422092060640e+01   2.4547468021525578e+00   1.4022186449327514e+00
   2.5172698299453099e+01   2.4448530664801424e+00   1.4022194293699310e+00
   2.5021163823104491e+01   2.4596972008247500e+00   1.3770821977271788e+00
   2.4709713681482956e+01   2.4745925913009170e+00   1.3871365361840795e+00
   2.4991792812318330e+01   2.4596969043117696e+00   1.3821091886126777e+00
   2.4849333417786539e+01   2.4696604798255364e+00   1.3770823129394667e+00
   2.5300922361714324e+01   2.4448700372572523e+00   1.3770806221616785e+00
   2.5068553052660956e+01   2.4547637701383316e+00   1.3871370833384347e+00
   2.5245657520962194e+01   2.4448361385156829e+00   1.3871356862064435e+00
   2.5146587019623215e+01   2.4547645451580831e+00   1.3720538743099124e+00
   2.4735261061496985e+01   2.4797424293264099e+00   1.3670270586308562e+00
   2.4496070896707025e+01   2.4999585924874776e+00   1.3519446242386362e+00
   2.4354382614328287e+01   2.5050274896522451e+00   1.3569713171880375e+00
   2.4498100533033412e+01   2.4949663164033162e+00   1.3620004173312843e+00
   2.4612126336187330e+01   2.4899360062689420e+00   1.3569728159869583e+00
   2.4880573973946259e+01   2.4797621308534210e+00   1.3418903138067448e+00
   2.4747090887898239e+01   2.4848708269242699e+00   1.3418909385830267e+00
   2.5383092177740874e+01   2.4448544892568584e+00   1.3619980387900625e+00
   2.5044679934481916e+01   2.4647135796073893e+00   1.3569724055978831e+00
   2.4934620226864272e+01   2.4696438843203743e+00   1.3619990941576829e+00
   2.5016819942452099e+01   2.4647129375674521e+00   1.3619994879305946e+00
   2.4876697394620916e+01   2.4746116176275401e+00   1.3569723806703196e+00
   2.5267160161309164e+01   2.4547814760317666e+00   1.3519442719241936e+00
   2.5204652550431181e+01   2.4547471731008179e+00   1.3619992247349157e+00
   2.5263077302635658e+01   2.4498223573109099e+00   1.3670257641362435e+00
   2.5672003207968576e+01   2.4745946643650552e+00   1.3368629797723282e+00
   2.5172290442337065e+01   2.4646966948149407e+00   1.3318352018143385e+00
   2.4936536480174809e+01   2.4746114970296151e+00   1.3469176226237827e+00
   2.5227389870135219e+01   2.4597162560073249e+00   1.3418899784740630e+00
   2.5083994109536242e+01   2.4696613346820264e+00   1.3368624570995848e+00
   2.5543361945978372e+01   2.4448719590837338e+00   1.3368640360359882e+00
   2.5330571008313093e+01   2.4547819447964114e+00   1.3418902254835683e+00
   2.5383464675111650e+01   2.4498403393662622e+00   1.3469156409677989e+00
   2.5361587896354973e+01   2.4547658333617974e+00   1.3368618860869057e+00
   2.5649088958375462e+01   2.4448724897171816e+00   1.3217809703728880e+00
   2.5482254786314222e+01   2.4498407526025838e+00   1.3318365554818732e+00
   2.5383310368160984e+01   2.4547657830723275e+00   1.3318347972905045e+00
   2.5111325687315457e+01   2.4397462195881818e+00   1.4374124497171343e+00
   2.5072211840576372e+01   2.4397454748129976e+00   1.4474670534943685e+00
   2.5350787625058061e+01   2.4246416564256945e+00   1.4524958485533912e+00
   2.5243999431527605e+01   2.4297301234205730e+00   1.4524946658184144e+00
   2.5020497066781349e+01   2.4397287980337534e+00   1.4625504772269180e+00
   2.5192906012378188e+01   2.4297138813235564e+00   1.4625508816423944e+00
   2.5037130670268049e+01   2.4397617543550298e+00   1.4575232885030938e+00
   2.5193307825484034e+01   2.4397634945746791e+00   1.4173011901783206e+00
   2.5269331344237525e+01   2.4347392921437621e+00   1.4223291012159101e+00
   2.5585749557177916e+01   2.4145158138059877e+00   1.4424404924394165e+00
   2.5321200402828158e+01   2.4297136173928906e+00   1.4323844097930447e+00
   2.5168705476609162e+01   2.4347220939303384e+00   1.4474682283492384e+00
   2.5261527467371980e+01   2.4297299790507898e+00   1.4474672136746569e+00
   2.5205477140294189e+01   2.4347561574016705e+00   1.4374127731949400e+00
   2.5506876447051884e+01   2.4195806064645469e+00   1.4374120853338541e+00
   2.5369164560204265e+01   2.4246415650310369e+00   1.4474682925007298e+00
   2.5362593724199538e+01   2.4297477403614343e+00   1.4223291647858365e+00
   2.5342452987905375e+01   2.4297138990200517e+00   1.4273528110115357e+00
   2.5667088472497149e+01   2.4145332522273364e+00   1.4223290691826254e+00
   2.5429536385097350e+01   2.4246258782567174e+00   1.4323841381447522e+00
   2.5625845617379930e+01   2.4145491316411087e+00   1.4323847651931594e+00
   2.5470051962797918e+01   2.4246592698419231e+00   1.4223290247773652e+00
   2.5889338320612772e+01   2.4045681913324577e+00   1.4173013176733604e+00
   2.5744026883324000e+01   2.4095723511200635e+00   1.4273564937042060e+00
   2.7177857884796108e+01   2.3594270599401166e+00   1.3670257393685274e+00
   2.5779851168594476e+01   2.4246615704285785e+00   1.3619966892418272e+00
   2.5355099303957338e+01   2.4347395057498740e+00   1.4022179557451286e+00
   2.5264184662844077e+01   2.4397638407934261e+00   1.4022181664053597e+00
   2.5582993127396840e+01   2.4297484330060728e+00   1.3770809979287613e+00
   2.5407818821266360e+01   2.4347554902340010e+00   1.3921634622245527e+00
   2.5500183694563475e+01   2.4297314730828914e+00   1.3921631750412105e+00
   2.5459045722257912e+01   2.4347552372488566e+00   1.3821078047364144e+00
   2.5668815959421636e+01   2.4246609188606216e+00   1.3821069632316738e+00
   2.5613314032119543e+01   2.4246769892318865e+00   1.3921627990744982e+00
   2.5778668227113673e+01   2.4145498944648951e+00   1.3971898920230013e+00
   2.5474102839262585e+01   2.4297314162172796e+00   1.3971912346496607e+00
   2.5425983358179266e+01   2.4297308443313588e+00   1.4072462352938797e+00
   2.5682470498299907e+01   2.4195803828318692e+00   1.3971904936535942e+00
   2.5610130575013123e+01   2.4195638764996330e+00   1.4122737861821113e+00
   2.5711343270232540e+01   2.4145337143526109e+00   1.4122732497245323e+00
   2.5862284108992846e+01   2.4145502091685431e+00   1.3821071264527265e+00
   2.5737395788986987e+01   2.4195814028359806e+00   1.3871341881752983e+00
   2.5836179109776854e+01   2.4145504585921413e+00   1.3871343822545745e+00
   2.5764092400461809e+01   2.4195816994206245e+00   1.3821064954664732e+00
   2.6183933752190271e+01   2.3944110185884915e+00   1.4022165497728918e+00
   2.6071900792018869e+01   2.3995128435909465e+00   1.4022166212777121e+00
   2.5812890861105366e+01   2.4096064881807226e+00   1.4122735753574041e+00
   2.6029265993777965e+01   2.3994790546418012e+00   1.4122726767587084e+00
   2.5851330557740855e+01   2.4095893638878447e+00   1.4022181989168652e+00
   2.6183352510311529e+01   2.3994970750292852e+00   1.3821063989172901e+00
   2.5932754930572067e+01   2.4095893459345668e+00   1.3871343333394799e+00
   2.6102253662033704e+01   2.3995126437383103e+00   1.3971893767671375e+00
   2.6035134222166281e+01   2.4045862746639468e+00   1.3871351401553100e+00
   2.6477455127468144e+01   2.3842935768383176e+00   1.3871340355307649e+00
   2.6339382905564893e+01   2.3893482719750478e+00   1.3921621646738673e+00
   2.6427694005256626e+01   2.3842929459104130e+00   1.3971894277403831e+00
   2.6261038937777268e+01   2.3944112638001238e+00   1.3871327027899543e+00
   2.5748697387848072e+01   2.4246611784041137e+00   1.3670247603646228e+00
   2.5694504604688785e+01   2.4297324465317516e+00   1.3569705209286873e+00
   2.5541829012856912e+01   2.4347391742930742e+00   1.3670250492935947e+00
   2.5635943195258722e+01   2.4297496362948316e+00   1.3670251418453878e+00
   2.5571551460731534e+01   2.4347728709479526e+00   1.3619969065849742e+00
   2.5698157230773823e+01   2.4347560277287585e+00   1.3418904186019029e+00
   2.5540012054553710e+01   2.4397649184576204e+00   1.3519419718394408e+00
   2.5758645534326611e+01   2.4297661066118486e+00   1.3469149571005288e+00
   2.5604987894373433e+01   2.4397482209686734e+00   1.3418870801827909e+00
   2.6003881950600377e+01   2.4195824411852729e+00   1.3418894567401596e+00
   2.5940043301752215e+01   2.4195820398562771e+00   1.3519455405083241e+00
   2.5971212983666145e+01   2.4145676267002005e+00   1.3620000575455240e+00
   2.5876624652573408e+01   2.4195988881277324e+00   1.3619958899011686e+00
   2.5818221013200155e+01   2.4195642563730293e+00   1.3720517089640376e+00
   2.5941712014827203e+01   2.4145334703365076e+00   1.3670234326312960e+00
   2.6068820869079101e+01   2.4145506377401356e+00   1.3469167991459121e+00
   2.6037434224178963e+01   2.4145676676526842e+00   1.3519453573558637e+00
   2.6590445628466796e+01   2.3843096394273791e+00   1.3670279012445379e+00
   2.6264411529583832e+01   2.3994812807151527e+00   1.3670268259453813e+00
   2.6014560145782688e+01   2.4096075534386854e+00   1.3720508057558107e+00
   2.6207927750163652e+01   2.3994969527541143e+00   1.3770775643762891e+00
   2.6041942325136120e+01   2.4096069837326026e+00   1.3670230078377164e+00
   2.6404154785429014e+01   2.3944287906437909e+00   1.3619972795736022e+00
   2.6314720577235281e+01   2.3944283018899881e+00   1.3770818871661772e+00
   2.6394663508626625e+01   2.3995157641465119e+00   1.3469161628887170e+00
   2.6239717969330915e+01   2.4046038355557431e+00   1.3519454529418640e+00
   2.6328578370414363e+01   2.3995140339283365e+00   1.3569716298009040e+00
   2.6203288801157978e+01   2.4096237875342963e+00   1.3418891046752968e+00
   2.6723639893801778e+01   2.3842936009784079e+00   1.3469165299646051e+00
   2.6468031673699688e+01   2.3944123902465373e+00   1.3519410693751932e+00
   2.6617840488054888e+01   2.3843094541137217e+00   1.3620001167586488e+00
   2.6505505622462401e+01   2.3944457851929579e+00   1.3469189708487828e+00
   2.7050635560670344e+01   2.3644577399883779e+00   1.3670261872952578e+00
   2.6662887692848781e+01   2.3744327065454334e+00   1.3921628184369697e+00
   2.6937290928111555e+01   2.3694826867557541e+00   1.3670255145008856e+00
   2.6812995390805277e+01   2.3744494804239036e+00   1.3670241097225626e+00
   2.7035863682877547e+01   2.3694657053774328e+00   1.3519419154971120e+00
   2.6873838499418518e+01   2.3744329769721717e+00   1.3569732547748414e+00
   2.6967394708427676e+01   2.3694826588904419e+00   1.3619969114887027e+00
   2.6835680961516069e+01   2.3793426984641433e+00   1.3469189649666686e+00
   2.7234737835916654e+01   2.3594279853012856e+00   1.3569714481999979e+00
   2.7081426117365051e+01   2.3644578605081783e+00   1.3619986878774728e+00
   2.7203107416449686e+01   2.3594274583047463e+00   1.3619992726618118e+00
   2.7115872864024293e+01   2.3644407890819323e+00   1.3569720122437257e+00
   2.7449331210187509e+01   2.3493694612496618e+00   1.3619997219023687e+00
   2.6894596996143648e+01   2.4196002556714036e+00   1.3066997229090296e+00
   2.6243220053727896e+01   2.4145676225114525e+00   1.3217833881519543e+00
   2.5895126272266872e+01   2.4297504446074223e+00   1.3268095666805548e+00
   2.5705424993946199e+01   2.4397827860999040e+00   1.3268087348853128e+00
   2.5765335797539048e+01   2.4347564281610556e+00   1.3318347991980677e+00
   2.5727197248616999e+01   2.4397831381004838e+00   1.3217807206294632e+00
   2.6008631653861013e+01   2.4246630010877115e+00   1.3268077385223225e+00
   2.5941105316191134e+01   2.4246621678459848e+00   1.3368630334120679e+00
   2.6176259160468444e+01   2.4145511841918470e+00   1.3318336985754189e+00
   2.5864098788146265e+01   2.4347730194741630e+00   1.3167524335123710e+00
   2.6286331627976470e+01   2.4145684546637716e+00   1.3167550905174021e+00
   2.6208082295611842e+01   2.4195992950481893e+00   1.3117273542178358e+00
   2.6141076400939845e+01   2.4145513203458342e+00   1.3368617510374849e+00
   2.6341200976726647e+01   2.4145683247199328e+00   1.3067002733646369e+00
   2.6825689474153577e+01   2.3843269839339820e+00   1.3318325405244154e+00
   2.6537601215811065e+01   2.3994985985872122e+00   1.3268092459237377e+00
   2.6377523783597312e+01   2.4045872212937689e+00   1.3318349199673953e+00
   2.6467674597415808e+01   2.3994992174640535e+00   1.3368650390038039e+00
   2.6310960203768943e+01   2.4096073081949547e+00   1.3268067991880419e+00
   2.6752830306638025e+01   2.3893833462160612e+00   1.3268101184499956e+00
   2.6683512662681462e+01   2.3893499479594031e+00   1.3368608790836283e+00
   2.6792385831971735e+01   2.3843270048157614e+00   1.3368608646520470e+00
   2.6685934529324417e+01   2.3995168235839812e+00   1.3067022970979845e+00
   2.6445847143595305e+01   2.4046211048020565e+00   1.3217790156519831e+00
   2.6576025398404219e+01   2.3995334776905333e+00   1.3217817199329025e+00
   2.6451360790420026e+01   2.4096417107528212e+00   1.3066994024508931e+00
   2.6938668695122075e+01   2.3843104955673793e+00   1.3167540451103499e+00
   2.6678011513619396e+01   2.3944293148212985e+00   1.3217836299671855e+00
   2.6901143063852697e+01   2.3843108636103620e+00   1.3217823700485760e+00
   2.6757655713659034e+01   2.3944293653983890e+00   1.3117278609195884e+00
   2.7026797484161587e+01   2.3893845110616807e+00   1.2916197814433299e+00
   2.6713593140642409e+01   2.3995163532391128e+00   1.3016747359281171e+00
   2.6576391138992726e+01   2.4046044664306052e+00   1.3016730997016719e+00
   2.6980593056407841e+01   2.3893673283326029e+00   1.2966484819333963e+00
   2.6947163744197461e+01   2.3893678327265993e+00   1.3016758854453125e+00
   2.6911277539173703e+01   2.3893673542575460e+00   1.3066981925474508e+00
   2.7876693632286884e+01   2.3843278071599485e+00   1.2865919869039300e+00
   2.7410179584723064e+01   2.3594453826983508e+00   1.3318340598870697e+00
   2.7177169122886106e+01   2.3694832270651105e+00   1.3318361315898133e+00
   2.6863156742075642e+01   2.3793252206377202e+00   1.3418907814738845e+00
   2.7071471176355416e+01   2.3694665217224427e+00   1.3469147305546578e+00
   2.7046848999579101e+01   2.3744494915495173e+00   1.3318340844519705e+00
   2.7253771035847681e+01   2.3644416024830064e+00   1.3368615656877127e+00
   2.7183999012739996e+01   2.3644409677141356e+00   1.3469166162404249e+00
   2.7300032231830787e+01   2.3594104731768208e+00   1.3469156401948774e+00
   2.7294355820329539e+01   2.3694838466466743e+00   1.3167530522581794e+00
   2.7124693540755608e+01   2.3744500992596400e+00   1.3217838790390697e+00
   2.7254771835351271e+01   2.3694835007100012e+00   1.3217809413604305e+00
   2.7198557056267834e+01   2.3744497615081528e+00   1.3117280207028565e+00
   2.7523933656585516e+01   2.3594288584659688e+00   1.3167560697726128e+00
   2.7374838219036363e+01   2.3644584732248717e+00   1.3217793334112988e+00
   2.7573721695854516e+01   2.3543750475566436e+00   1.3268078736401423e+00
   2.7410951351240289e+01   2.3644598436662871e+00   1.3167567358905230e+00
   2.7733705390156953e+01   2.3493710251890758e+00   1.3217817262014706e+00
   2.7766853104795615e+01   2.3543926832959330e+00   1.3016753247388146e+00
   2.7315501591951154e+01   2.3744663536674095e+00   1.2966450472521598e+00
   2.7170849346935441e+01   2.3793420249387083e+00   1.3016733787441366e+00
   2.7367158099601738e+01   2.3694838466466743e+00   1.3067021861551247e+00
   2.7275197953909885e+01   2.3744669150871971e+00   1.3016723838053954e+00
   2.7569345372865964e+01   2.3644425689363158e+00   1.2966461071391160e+00
   2.7487266522412956e+01   2.3644426607037601e+00   1.3067014509874699e+00
   2.7568392003749274e+01   2.3594295502879694e+00   1.3117275456023139e+00
   2.7476277976281466e+01   2.3744675526550352e+00   1.2815664478094329e+00
   2.7390944226868321e+01   2.3744669360419057e+00   1.2865942643653305e+00
   2.7490679808166860e+01   2.3695010487378685e+00   1.2916194540162438e+00
   2.7805899413346172e+01   2.3594470441750008e+00   1.2815671497271104e+00
   2.7607517873955185e+01   2.3644770616893052e+00   1.2916194698922312e+00
   2.7849506888814187e+01   2.3543921508514360e+00   1.2916195660533916e+00
   2.7648149086300169e+01   2.3644777594115363e+00   1.2865909893835368e+00
   2.8019882463474413e+01   2.3443777765932543e+00   1.3016747880683646e+00
   2.7854832661631555e+01   2.3493713756057368e+00   1.3067026358400882e+00
   2.8162658405385120e+01   2.3443608538663234e+00   1.2865913487481233e+00
   2.7967446774099152e+01   2.3493887050442690e+00   1.2916195300084732e+00
   2.8076010618548889e+01   2.3443609077615482e+00   1.2966469570029338e+00
   2.8018088583407451e+01   2.3493886943612137e+00   1.2865909929084676e+00
   2.8521242811441738e+01   2.3290071808171304e+00   1.2916191097904717e+00
   2.8238232865634263e+01   2.3392427251140453e+00   1.2916230301031502e+00
   2.8900763646275561e+01   2.3140696403665570e+00   1.2916223705085641e+00
   2.8642746989727154e+01   2.3241028747232018e+00   1.2916214805660851e+00
   2.8486983764524474e+01   2.3644605748008858e+00   1.2765407424890947e+00
   2.8008353430490644e+01   2.3544101648439528e+00   1.2715129236627798e+00
   2.7963609301959647e+01   2.3544100290899443e+00   1.2765408174936539e+00
   2.8627857847727622e+01   2.3289908870912863e+00   1.2765405366201654e+00
   2.8272851415841078e+01   2.3443790507329654e+00   1.2715133088506665e+00
   2.8061434228641790e+01   2.3493883218592955e+00   1.2815684874796458e+00
   2.8241938851651138e+01   2.3443611349950606e+00   1.2765409731313562e+00
   2.8128648610363140e+01   2.3493886770943302e+00   1.2715131206353127e+00
   2.8507515276757566e+01   2.3340876625312630e+00   1.2765386423433358e+00
   2.8328709537484603e+01   2.3392431993322695e+00   1.2815672789020911e+00
   2.8594934395924344e+01   2.3289911884777141e+00   1.2815685155007090e+00
   2.8547448075958279e+01   2.3340698554911938e+00   1.2664883887546390e+00
   2.8808275448224837e+01   2.3191272157934399e+00   1.2865945459146306e+00
   2.8716659543024257e+01   2.3240850377127984e+00   1.2815658812930064e+00
   4.8657575722085681e+01   1.9623814820775358e+00   1.5429984727684414e+00
   4.7902852899942545e+01   1.9573174356780372e+00   1.5429975962180928e+00
   4.7907315525974219e+01   1.9623490742698380e+00   1.5480259157764278e+00
   4.8918148235677315e+01   1.9722642756283102e+00   1.5681402746454853e+00
   4.8678573525474647e+01   1.9623647053604181e+00   1.5631123982478676e+00
   4.8676446039158812e+01   1.9623645503013065e+00   1.5681402546586687e+00
   4.8678570687419992e+01   1.9623571618748243e+00   1.5530538725569334e+00
   4.8679290999791988e+01   1.9623567428119573e+00   1.5580844188578780e+00
   4.8800306379054732e+01   1.9672937354167614e+00   1.5631115657970434e+00
   4.8796725603063571e+01   1.9672939108481522e+00   1.5681393011245741e+00
   4.8848119963311369e+01   1.9572997538710690e+00   1.5631115951204493e+00
   4.8846342674302292e+01   1.9573073625409476e+00   1.5681395024438749e+00
   4.8857076354283379e+01   1.9573250618515805e+00   1.5530562259633509e+00
   4.8849926368341812e+01   1.9573325610188865e+00   1.5580838465012061e+00
   4.8457543408796461e+01   1.9520676632207223e+00   1.5379710425638471e+00
   4.7895343123614062e+01   1.9573181229277110e+00   1.5329421253808369e+00
   4.8584640644332701e+01   1.9573173787662586e+00   1.5379702034455207e+00
   4.8867792279417749e+01   1.9573251720891560e+00   1.5480256611574383e+00
   4.8351771665436047e+01   1.9470116227972294e+00   1.5379692968256173e+00
   4.7884570074106769e+01   1.9269806213360003e+00   1.5631124607803097e+00
   4.7991225716781415e+01   1.9320405188596734e+00   1.5631117214484138e+00
   4.7986660617991483e+01   1.9320482826275787e+00   1.5681396061911081e+00
   4.7881060228316805e+01   1.9269887073778971e+00   1.5681401168248570e+00
   4.7777570392655306e+01   1.9219232763767709e+00   1.5631112224403967e+00
   4.7772670391707024e+01   1.9219315921503657e+00   1.5681411235582696e+00
   4.7889483431998443e+01   1.9269730199698984e+00   1.5530546743206739e+00
   4.7994722902534996e+01   1.9320724799830271e+00   1.5580836909635627e+00
   4.7887355449477610e+01   1.9269807881763237e+00   1.5580819599582696e+00
   4.8012282638202088e+01   1.9320644580823649e+00   1.5530561855582510e+00
   4.7778959080860538e+01   1.9219239224187172e+00   1.5580837777658982e+00
   4.8243780656676833e+01   1.9421088356324103e+00   1.5379692058338728e+00
   4.4388940154384024e+01   1.6306959674532389e+00   1.4524922620929821e+00
   4.6380801793372846e+01   1.8463508227002494e+00   1.5480259946774422e+00
   4.6536708511063743e+01   1.8565385319624752e+00   1.5631122096648267e+00
   4.6623453945506746e+01   1.8616932122858052e+00   1.5631114494138292e+00
   4.6621745701150942e+01   1.8616690580901132e+00   1.5681416826261203e+00
   4.6532290020417932e+01   1.8565457994504146e+00   1.5681398672626357e+00
   4.6538747940347797e+01   1.8565386114807150e+00   1.5530538786754184e+00
   4.6629920492599680e+01   1.8616930126605251e+00   1.5580840176323509e+00
   4.6539413197262022e+01   1.8565385607566709e+00   1.5580841997350678e+00
   4.6630586058472957e+01   1.8616857010779950e+00   1.5530541220638336e+00
   4.6366595475692513e+01   1.8463266480197094e+00   1.5631116671111220e+00
   4.6453616581489484e+01   1.8513860015360475e+00   1.5631116180500171e+00
   4.6446163080441060e+01   1.8513939692352015e+00   1.5681395272449403e+00
   4.6365565195314204e+01   1.8463351729280131e+00   1.5681395243942584e+00
   4.6595373759536827e+01   1.8414599543857870e+00   1.5681401801532358e+00
   4.6374726593058782e+01   1.8463590612660399e+00   1.5530536417081098e+00
   4.6455985601489658e+01   1.8514182102232177e+00   1.5580837150730087e+00
   4.6372682712019959e+01   1.8463265999807730e+00   1.5580839098420860e+00
   4.6458010706552379e+01   1.8514106189436976e+00   1.5530558936929337e+00
   4.4816182911747902e+01   1.7763833646311202e+00   1.5027731649411227e+00
   4.6101189135291300e+01   1.8264218475137153e+00   1.5379703239930356e+00
   4.6022904558599492e+01   1.8215255771195995e+00   1.5379701868515123e+00
   4.5755269404093120e+01   1.8063596179491417e+00   1.5580831316392689e+00
   4.5503776788484814e+01   1.7863109955627878e+00   1.5480257655168908e+00
   4.5497481630881872e+01   1.7863107375448246e+00   1.5530563265762212e+00
   4.5495794577807004e+01   1.7863185680451021e+00   1.5580837325072039e+00
   4.5558473230911552e+01   1.7912841097292547e+00   1.5580824765871901e+00
   4.5083640959578418e+01   1.7510210847318159e+00   1.5379687473862129e+00
   4.5230990385538036e+01   1.7611660270970972e+00   1.5279134403424743e+00
   4.5103168752297449e+01   1.7510129491173332e+00   1.5279130701666150e+00
   4.5161719752608839e+01   1.7561365792771435e+00   1.5329407866027314e+00
   4.5090570864730481e+01   1.7510213159859778e+00   1.5329413029043668e+00
   4.5162055946779518e+01   1.7561684385058522e+00   1.5279128817991425e+00
   4.5244772225216103e+01   1.7611582811896229e+00   1.5178560956343856e+00
   4.5235468217765032e+01   1.7611579639663184e+00   1.5228837435220295e+00
   4.5125027252658931e+01   1.7510372830008720e+00   1.5178577075144013e+00
   4.5172615713917224e+01   1.7561605487949836e+00   1.5228853331715435e+00
   4.5114436629037002e+01   1.7510131815205363e+00   1.5228851256497704e+00
   4.5183807519518709e+01   1.7561609968130432e+00   1.5178556306965763e+00
   4.5270089402292989e+01   1.7611505666767817e+00   1.5078000761816501e+00
   4.5311914617664812e+01   1.7661497471710503e+00   1.5128283769359205e+00
   4.5256680088950951e+01   1.7611503596967204e+00   1.5128278005938922e+00
   4.5326455715442577e+01   1.7661492474522167e+00   1.5078009276665509e+00
   4.5207536255924332e+01   1.7561533936235032e+00   1.5078000316805007e+00
   4.5196019346664244e+01   1.7561612855923512e+00   1.5128277020843082e+00
   4.5135609122102203e+01   1.7510371852197826e+00   1.5128272374418756e+00
   4.4302159804973222e+01   1.6203958469690167e+00   1.4575196718816243e+00
   4.4979482693584927e+01   1.7410016221198719e+00   1.5379707571703118e+00
   4.5032836251980413e+01   1.7459620477806148e+00   1.5379696695207501e+00
   4.4953558250639539e+01   1.7409794040760951e+00   1.5631117871647784e+00
   4.5008200906118461e+01   1.7459777034646051e+00   1.5631109628355229e+00
   4.4850141131130243e+01   1.7309614038566603e+00   1.5631131315674212e+00
   4.4902625770702457e+01   1.7360208159435861e+00   1.5631126025351898e+00
   4.4962092354425067e+01   1.7409790958582316e+00   1.5530541397742914e+00
   4.5011503045436193e+01   1.7459779238933775e+00   1.5580832340178663e+00
   4.4957163142995341e+01   1.7409792658315288e+00   1.5580841725512176e+00
   4.5013118443182861e+01   1.7459699811592224e+00   1.5530559454635620e+00
   4.4858326265260743e+01   1.7309539601712141e+00   1.5530546093090098e+00
   4.4908186423319528e+01   1.7360135541930370e+00   1.5580825339013651e+00
   4.4853065824362432e+01   1.7309536470396922e+00   1.5580825612595641e+00
   4.4909828877165687e+01   1.7360133372616233e+00   1.5530545580171662e+00
   4.4747118175011948e+01   1.7208127292304281e+00   1.5631111305370915e+00
   4.4797192111532851e+01   1.7258669400429330e+00   1.5631115284363113e+00
   4.4755625284013739e+01   1.7208046987429388e+00   1.5530554809297739e+00
   4.4801124644442048e+01   1.7258667684869700e+00   1.5580841606747122e+00
   4.4753001035023630e+01   1.7208047460936551e+00   1.5580834514171227e+00
   4.4804710959853260e+01   1.7258669026282627e+00   1.5530558554075875e+00
   4.4965370750060558e+01   1.7409709801855195e+00   1.5480259935676963e+00
   4.5018387893116682e+01   1.7459700520741113e+00   1.5480256850292093e+00
   4.4870449033182787e+01   1.7309774527789303e+00   1.5379692308609705e+00
   4.4912766991770624e+01   1.7360056179526888e+00   1.5480264901788681e+00
   4.4866173644545931e+01   1.7309771832474494e+00   1.5429970620557563e+00
   4.4923930912614672e+01   1.7360052866414317e+00   1.5379709533542847e+00
   4.4997859156867769e+01   1.7409934377549621e+00   1.5279124332309093e+00
   4.5042050805203154e+01   1.7459931005903446e+00   1.5329425406492523e+00
   4.4985718120783623e+01   1.7409938954519171e+00   1.5329406076254064e+00
   4.5053870982052352e+01   1.7459853723249728e+00   1.5279122170460804e+00
   4.4894352361322149e+01   1.7309694939976441e+00   1.5279135164559243e+00
   4.4931132853409672e+01   1.7360281942531235e+00   1.5329408109475222e+00
   4.4881586447547441e+01   1.7309695328977892e+00   1.5329411864970954e+00
   4.4940660656400290e+01   1.7360280800024588e+00   1.5279128754945777e+00
   4.4768349327776761e+01   1.7208276698151121e+00   1.5379700346541554e+00
   4.4818792023273382e+01   1.7258512095884653e+00   1.5379702031853257e+00
   4.4814858034912952e+01   1.7258590408849099e+00   1.5429979247707697e+00
   4.4756937820680534e+01   1.7208356711142008e+00   1.5480256432041004e+00
   4.4957963918333597e+01   1.7159277322709223e+00   1.5379686376226849e+00
   4.4790264238698938e+01   1.7208195691713903e+00   1.5279119918816730e+00
   4.4829571723305001e+01   1.7258510756788701e+00   1.5329422009644200e+00
   4.4773592517549922e+01   1.7208278882499193e+00   1.5329419207356694e+00
   4.4838741146790085e+01   1.7258508653885161e+00   1.5279120647164011e+00
   4.4696824283416568e+01   1.7110206235003895e+00   1.5279131813767766e+00
   4.4739396400832838e+01   1.7159200732499102e+00   1.5329409552442856e+00
   4.4651813690128222e+01   1.7059624525512143e+00   1.5329412088479399e+00
   4.4741692091742635e+01   1.7159201896684773e+00   1.5279131921839446e+00
   4.4601889235493474e+01   1.7007780125755925e+00   1.5279136107711151e+00
   4.4609985380000317e+01   1.7007774545563250e+00   1.5329412977378012e+00
   4.5019221987218181e+01   1.7409857925323216e+00   1.5178567161303163e+00
   4.5071967713111995e+01   1.7459851732978280e+00   1.5178563391836313e+00
   4.5011671765776939e+01   1.7409854502433773e+00   1.5228849542845975e+00
   4.5062766811367545e+01   1.7459853510151786e+00   1.5228844010270395e+00
   4.4909730472293120e+01   1.7309617453380577e+00   1.5178554511344340e+00
   4.4952132740117172e+01   1.7360277409259477e+00   1.5228846535041543e+00
   4.4903522573415962e+01   1.7309692638380121e+00   1.5228858105656764e+00
   4.4962274639033609e+01   1.7360200394471648e+00   1.5178568862346302e+00
   4.5039548144670064e+01   1.7409775134270395e+00   1.5077989943006986e+00
   4.5085760804400635e+01   1.7459776599831618e+00   1.5128288361200948e+00
   4.5025767063774907e+01   1.7409853438269047e+00   1.5128289086606994e+00
   4.4936270704749724e+01   1.7309853966283009e+00   1.5078003120975916e+00
   4.4975411990356754e+01   1.7360199176396101e+00   1.5128291688140409e+00
   4.4920225474773353e+01   1.7309621935392787e+00   1.5128279821825248e+00
   4.4987871451922430e+01   1.7360121022701791e+00   1.5078013030369903e+00
   4.4803650741584455e+01   1.7208114118443967e+00   1.5178561813198612e+00
   4.4857380481990411e+01   1.7258750521532056e+00   1.5178562958825910e+00
   4.4847883447475162e+01   1.7258746971974694e+00   1.5228842327710881e+00
   4.4795150038928789e+01   1.7208196602054133e+00   1.5228843981240860e+00
   4.4667944442751079e+01   1.7059547505152006e+00   1.5178559805410967e+00
   4.4753485464508437e+01   1.7159198674333274e+00   1.5228855062041076e+00
   4.4659510005947482e+01   1.7059549057359245e+00   1.5228838087827867e+00
   4.4763653813832413e+01   1.7159120568537991e+00   1.5178552539515557e+00
   4.4881250936353581e+01   1.7258672507234460e+00   1.5078006529132746e+00
   4.4868823786616474e+01   1.7258670770473186e+00   1.5128289420933407e+00
   4.4825524756753822e+01   1.7208115512647257e+00   1.5128287962593614e+00
   4.4694033571078478e+01   1.7059471244308959e+00   1.5078005164935722e+00
   4.4776076378099113e+01   1.7159433356879001e+00   1.5128275256939980e+00
   4.4729430157993299e+01   1.7110127249562090e+00   1.5128271559359971e+00
   4.4621723566898829e+01   1.7008015847569680e+00   1.5178558726772122e+00
   4.4608860014119443e+01   1.7008012623782882e+00   1.5228834757252503e+00
   4.4633066576834331e+01   1.7008013774946891e+00   1.5128285476290813e+00
   4.4131244781751150e+01   1.6203872640503933e+00   1.4977426009430685e+00
   4.4141149201064998e+01   1.6103911945635554e+00   1.4826589055631787e+00
   4.4155829689926215e+01   1.6154495398265296e+00   1.4826605249056182e+00
   4.4137145123514244e+01   1.6154491683881496e+00   1.4876884109147583e+00
   4.4356053998993254e+01   1.6255153238589803e+00   1.4524914334843528e+00
   4.4274413456603718e+01   1.6203957320389057e+00   1.4625472477488148e+00
   4.4154503609109724e+01   1.5752115344972004e+00   1.4524917798097399e+00
   4.4198308478463815e+01   1.6154416221308174e+00   1.4726033413540822e+00
   4.4160424423644081e+01   1.6103836737763388e+00   1.4776312320267704e+00
   4.4175148200546914e+01   1.6154413904546370e+00   1.4776304535210540e+00
   4.4225037733435130e+01   1.6154414742600538e+00   1.4675755919862827e+00
   4.4131948649756652e+01   1.5752195554877861e+00   1.4575193584773800e+00
   4.4364710546547357e+01   1.6306721413808094e+00   1.4575201345671231e+00
   4.4280222032194168e+01   1.5752196118873403e+00   1.4625483278163223e+00
   3.4874136013745243e+01   1.5966214063965845e+00   4.8780474626723160e+00
   3.4442031173560757e+01   1.6119411003192952e+00   4.7524516606275533e+00
   3.4350258295643137e+01   1.5816647077041215e+00   4.7223017319435954e+00
   3.4337022926636330e+01   1.5767269574059712e+00   4.7223019997952376e+00
   3.4334068051734235e+01   1.5767272472539062e+00   4.7172771768000095e+00
   3.4345837849280088e+01   1.5816648288387474e+00   4.7172772777493117e+00
   3.4423340063650215e+01   1.5966550008112603e+00   4.7223019518765366e+00
   3.4420885014702250e+01   1.5865861903349889e+00   4.7172772820665116e+00
   3.4423342479680116e+01   1.5966549381353212e+00   4.7172778046024213e+00
   3.4408011592808599e+01   1.5866033537341890e+00   4.7223010493739412e+00
   3.4366529325021254e+01   1.5816647443263496e+00   4.7323539461297628e+00
   3.4330397210791091e+01   1.5717160227253018e+00   4.7273259199417668e+00
   3.4429343560234344e+01   1.5966218361306166e+00   4.7373747168124947e+00
   3.4420278736097458e+01   1.5915740485586001e+00   4.7323537998536125e+00
   3.4425825093931536e+01   1.5966547484276079e+00   4.7273261713067303e+00
   3.4468464201850885e+01   1.6119583088549310e+00   4.7223022621182631e+00
   3.4439699144888735e+01   1.6016799101542989e+00   4.7223016857621243e+00
   3.4452372289895060e+01   1.6016798268799526e+00   4.7172772263748399e+00
   3.4463402358337781e+01   1.6119415389282763e+00   4.7172774318859334e+00
   3.4501354446890950e+01   1.6219431571648026e+00   4.7223007825406125e+00
   3.4482711693065468e+01   1.6169165318285683e+00   4.7172773625062687e+00
   3.4515731276749470e+01   1.6271193084589997e+00   4.7172788571556641e+00
   3.4480725409117959e+01   1.6169164938553640e+00   4.7223022752621588e+00
   3.4481197891701107e+01   1.6119583430475399e+00   4.7373743256408618e+00
   3.4445788535973250e+01   1.6016799885641775e+00   4.7323540825361983e+00
   3.4470005356799781e+01   1.6119581384842647e+00   4.7273264932317378e+00
   3.4462001696019954e+01   1.6068051323759982e+00   4.7373784930862302e+00
   3.4529949098816985e+01   1.6271032708949198e+00   4.7373779485839176e+00
   3.4490147383295508e+01   1.6169161249551669e+00   4.7323505280569984e+00
   3.4523939833418737e+01   1.6271354273779974e+00   4.7273279237907513e+00
   3.4494620765292467e+01   1.6169330602570584e+00   4.7373752147457120e+00
   3.4483734084073291e+01   1.6119583639075470e+00   4.7423993420273600e+00
   3.4487681861479437e+01   1.6169327887060232e+00   4.7423994448220697e+00
   3.4460854734589581e+01   1.6119408116574803e+00   4.7624965735287539e+00
   3.4486172710069191e+01   1.6169161243022716e+00   4.7624961063202367e+00
   3.4582733409517481e+01   1.6471499780967584e+00   4.7424025659074793e+00
   3.4516685417237035e+01   1.6371875690282516e+00   4.7223016820032351e+00
   3.4539936913661521e+01   1.6322093881170243e+00   4.7223011758578259e+00
   3.4542995460237243e+01   1.6322096337455247e+00   4.7172767925165804e+00
   3.4514630264991951e+01   1.6371713430461923e+00   4.7172781439362641e+00
   3.4555184055475493e+01   1.6471651836600643e+00   4.7223012299717508e+00
   3.4554144869559430e+01   1.6471655105904801e+00   4.7172769807451296e+00
   3.4529912172147114e+01   1.6371547904909298e+00   4.7373744410411280e+00
   3.4542984391876310e+01   1.6322255255520302e+00   4.7273258538197407e+00
